#.PCD v0.7 - Point Cloud Data file format
VERSION 0.7
FIELDS x y z
SIZE 4 4 4
TYPE F F F
COUNT 1 1 1
WIDTH 2386
HEIGHT 1
VIEWPOINT 0 0 0 1 0 0 0
POINTS 2386 float
DATA ascii
-0.873 -0.868 -1.343
0.869 -0.251 -2.837
1.246 -0.627 -1.802
-0.798 -0.845 -2.038
1.117 -0.138 -2.156
0.021 -0.867 -1.879
-0.621 -0.812 -0.919
1.365 -0.172 -1.479
-0.624 -0.869 -1.906
0.672 -0.889 -1.376
0.186 -0.864 -1.568
0.309 -0.9 -1.892
0.217 -0.896 -1.688
0.799 -0.152 -3.013
0.124 -0.897 -2.329
0.621 -0.886 -3.099
-0.373 -0.888 -1.464
-1.6 -0.819 -2.059
-1.844 -0.557 -3.263
0.498 -0.516 -3.859
1.24 -0.927 -1.566
1.344 -0.397 -1.531
0.274 -0.879 -2.756
-0.621 -0.63 -0.903
0.871 -0.913 -1.739
0.218 -0.882 -2.09
0.025 -0.845 -1.418
0.311 -0.884 -2.544
0.231 -0.891 -1.502
1.242 -0.225 -1.826
-0.924 -0.866 -1.352
-0.274 -0.778 -1.602
0.272 -0.888 -1.789
-0.67 -0.851 -2.078
0.869 -0.912 -2.203
1.232 -0.44 -1.848
-0.031 -0.854 -1.284
0.136 -0.87 -1.496
-0.017 -0.869 -1.82
1.242 -0.144 -1.802
-0.155 -0.494 -1.552
-0.794 -0.868 -1.519
0.99 -0.379 -2.478
0.989 -0.555 -2.498
0.74 -0.893 -2.373
-0.031 -0.701 -3.462
-0.435 -0.895 -1.559
-0.433 -0.864 -1.157
-0.062 -0.35 -4.47
-0.869 -0.861 -0.844
-1.219 -0.831 -2.461
0.744 -0.432 -3.182
0.434 -0.882 -2.119
-0.154 -0.834 -1.252
-0.273 -0.6 -1.625
0.23 -0.885 -1.773
-0.216 -0.459 -1.637
1.226 -0.78 -1.837
-1.846 -0.118 -3.136
1.344 -0.489 -1.54
0.461 -0.245 -3.909
0.108 -0.874 -1.768
1.24 -0.422 -1.833
0.989 -0.219 -2.49
-1.238 -0.872 -1.749
0.307 -0.885 -3.283
-1.007 -0.845 -1.737
-0.159 -0.878 -1.361
0.282 -0.807 -1.275
0.214 -0.87 -1.866
0.303 -0.877 -1.723
1.13 -0.899 -1.354
0.345 -0.902 -2.514
-0.366 -0.846 -1.154
1.255 -0.39 -1.785
-1.022 -0.869 -1.527
-0.095 -0.904 -3.225
1.259 -0.073 -1.813
0.939 -0.26 -2.651
-0.016 -0.751 -1.146
0.333 -0.868 -1.483
-0.333 -0.868 -1.233
0.001 -0.869 -1.289
-0.229 -0.875 -1.09
-0.256 -0.868 -1.363
0.283 -0.708 -1.125
1.024 -0.615 -2.42
-0.981 -0.859 -0.84
-0.38 -0.871 -1.492
-1.384 -0.865 -2.163
0.051 -0.652 -4.326
1.395 -0.431 -1.408
1.257 -0.659 -1.751
1.395 -0.607 -1.403
0.817 -0.882 -2.147
0.071 -0.717 -1.358
-1.145 -0.849 -0.935
1.132 -0.921 -1.613
0.167 -0.896 -1.56
0.051 -0.876 -1.693
-1.774 -0.824 -1.994
0.667 -0.886 -1.663
1.397 -0.492 -1.392
-0.408 -0.889 -1.606
0.73 -0.353 -3.23
0.017 -0.83 -3.537
-1.461 -0.87 -1.984
0.668 -0.093 -3.366
0.667 -0.907 -1.609
1.259 -0.152 -1.787
1.206 -0.751 -1.886
0.758 -0.38 -3.114
0.758 -0.886 -1.983
0.913 -0.395 -2.688
1.378 -0.475 -1.443
1.079 -0.916 -1.664
1.328 -0.748 -1.589
0.854 -0.719 -1.141
0.853 -0.149 -2.837
-0.114 -0.806 -1.648
-0.122 -0.804 -1.19
0.602 -0.892 -3.005
0.407 -0.875 -1.618
0.363 -0.895 -1.456
1.202 0.005 -1.951
0.939 -0.187 -2.657
1.328 -0.664 -1.555
-0.852 -0.847 -2.415
0.315 -0.803 -1.339
-1.891 -0.816 -2.451
-1.827 -0.452 -3.455
-0.22 -0.798 -1.584
0.407 -0.883 -2.552
0.94 -0.718 -2.621
-0.244 -0.897 -1.433
0.663 -0.805 -1.484
-0.189 -0.678 -1.601
0.441 -0.892 -2.929
-0.883 -0.853 -0.9
0.914 -0.887 -1.928
-0.127 -0.719 -0.983
-0.395 -0.866 -1.494
0.861 -0.911 -1.892
0.786 -0.887 -1.767
-1.226 -0.843 -1.198
0.755 -0.892 -2.381
0.987 -0.731 -1.099
-0.368 -0.891 -1.622
-0.612 -0.855 -1.423
-0.431 -0.867 -1.285
0.756 -0.3 -3.121
1.222 -0.902 -1.558
-0.057 -0.47 -1.607
0.44 -0.904 -1.99
-0.378 -0.869 -1.342
1.22 -0.921 -1.515
1.472 -0.886 -1.242
-0.378 -0.863 -1.536
1.135 -0.9 -1.286
1.135 -0.899 -1.735
-0.507 -0.844 -1.204
0.909 -0.787 -2.661
1.345 -0.904 -1.398
0.253 -0.879 -1.602
0.861 -0.871 -1.602
0.986 -0.437 -2.51
0.455 -0.883 -1.301
1.22 -0.067 -1.88
0.662 -0.891 -1.608
1.322 -0.464 -1.608
0.859 -0.801 -1.633
0.737 -0.35 -3.161
0.43 -0.898 -1.467
0.252 -0.875 -1.499
-0.246 -0.797 -1.679
-1.845 -0.095 -3.108
-0.912 -0.868 -1.31
-0.269 -0.711 -3.38
0.126 -0.883 -1.407
0.629 -0.884 -2.041
0.786 -0.91 -1.44
1.26 -0.298 -1.782
-0.86 -0.853 -1.797
-0.985 -0.848 -1.042
-0.505 -0.862 -1.348
-0.133 -0.462 -1.606
0.329 -0.886 -2.235
-1.595 -0.423 -4.135
-1.845 -0.294 -3.189
1.189 -0.458 -1.948
1.131 -0.486 -2.118
-0.019 -0.894 -1.489
-0.533 -0.863 -1.382
-0.157 -0.878 -1.39
-0.983 -0.869 -1.464
0.076 -0.868 -1.913
-0.429 -0.87 -1.015
0.082 -0.268 -4.349
-2.637 -0.76 -2.244
1.193 -0.526 -1.957
-0.165 -0.496 -1.61
0.91 -0.368 -2.733
-0.455 -0.861 -1.179
0.659 -0.888 -2.213
1.318 0.005 -1.646
-0.047 -0.857 -1.307
-1.502 -0.325 -3.976
-2.045 -0.404 -3.134
0.107 -0.257 -4.34
1.252 -0.653 -1.766
1.27 -0.716 -1.734
0.883 -0.914 -1.933
1.018 -0.125 -2.412
0.442 -0.888 -2.113
-0.509 -0.888 -1.994
-2.036 -0.774 -2.86
1.147 -0.291 -2.074
0.634 -0.461 -3.456
0.128 -0.711 -4.387
0.004 -0.847 -1.314
-0.002 -0.851 -1.143
0.318 -0.889 -1.694
0.318 -0.89 -1.495
1.147 -0.897 -1.727
-0.002 -0.491 -1.699
-0.002 -0.883 -1.275
0.016 -0.882 -1.599
0.004 -0.881 -1.798
0.002 -0.878 -1.77
-0.889 -0.846 -1.412
-0.444 -0.894 -1.348
-0.639 -0.857 -1.223
0.222 -0.89 -1.394
-1.03 -0.837 -2.555
0.191 -0.865 -1.631
0.257 -0.864 -1.455
1.151 -0.199 -2.075
-0.257 -0.881 -1.322
-0.89 -0.87 -1.398
-0.32 -0.878 -1.556
0.32 -0.88 -1.658
-0.02 -0.877 -1.255
0.516 -0.702 -1.217
-0.515 -0.862 -0.995
1.03 -0.897 -1.65
0.64 -0.905 -1.683
1.282 -0.487 -1.714
-0.891 -0.848 -1.663
-0.16 -0.892 -1.395
-2.056 -0.804 -2.29
1.03 -0.916 -1.869
0.003 -0.714 -3.456
1.159 -0.503 -2.035
0.006 -0.72 -1.909
-0.129 -0.898 -1.588
-0.012 -0.498 -1.735
0.096 -0.749 -1.138
-0.003 -0.869 -1.383
1.288 -0.816 -1.692
-0.766 -0.801 -0.883
0.384 -0.903 -1.492
-1.663 -0.861 -2.099
0.645 -0.693 -3.362
-0.006 -0.892 -1.431
0.518 -0.886 -2.5
-2.334 -0.814 -2.228
0.26 -0.732 -1.17
0.893 -0.914 -1.553
0.13 -0.878 -1.866
-0.007 -0.361 -4.313
1.163 -0.908 -1.259
0.014 -0.878 -2.131
1.29 -0.116 -1.666
-1.421 -0.283 -4.21
0.26 -0.887 -1.7
-0.323 -0.74 -3.43
0.007 -0.872 -2.144
0.449 -0.878 -1.527
0.448 -0.911 -1.436
0.225 -0.423 -4.426
0.131 -0.897 -1.883
-2.342 -0.808 -2.664
0.325 -0.901 -2.323
0.777 -0.473 -3.086
-0.776 -0.608 -0.834
-1.304 -0.832 -1.979
-0.45 -0.867 -1.115
-1.056 -0.851 -0.855
0.778 -0.732 -3.032
0.528 -0.076 -3.759
-0.777 -0.865 -2.574
-1.177 -0.905 -3.38
-0.194 -0.879 -1.114
1.304 -0.725 -1.647
-0.777 -0.852 -1.249
-1.179 -0.399 -4.105
0.195 -0.887 -1.82
0.906 -0.58 -2.725
-0.655 -0.863 -0.923
0.904 -0.259 -2.728
-0.78 -0.848 -2.537
0.041 -0.565 -4.39
-0.082 -0.532 -1.602
0.041 -0.881 -2.427
0.328 -0.504 -4.321
1.312 -0.314 -1.623
0.905 -0.916 -1.674
1.185 -0.785 -1.993
-0.023 -0.654 -1.659
0.369 -0.725 -1.179
1.224 -0.901 -1.643
0.612 -0.891 -3.266
-0.054 -0.587 -1.653
1.224 -0.653 -1.87
0.43 -0.894 -2.899
0.305 -0.893 -1.586
-0.153 -0.699 -3.432
-0.305 -0.547 -1.69
0.368 -0.898 -1.853
-0.612 -0.858 -1.075
0.991 -0.036 -2.482
-1.105 -0.869 -1.422
-0.054 -0.532 -1.598
1.351 -0.511 -1.515
-1.103 -0.848 -0.982
1.349 -0.169 -1.543
0.185 -0.348 -4.396
0.309 -0.88 -1.394
-0.617 -0.657 -0.692
-0.434 -0.863 -1.777
-0.154 -0.651 -1.566
0.865 -0.553 -2.862
-0.077 -0.797 -1.637
0.866 -0.915 -1.53
-1.234 -0.871 -1.798
1.365 -0.773 -1.461
-0.498 -0.889 -1.889
1.236 -0.058 -1.842
-2.109 -0.694 -3.138
1.24 -0.736 -1.824
-1.119 -0.235 -4.258
-0.436 -0.69 -0.751
1.371 -0.559 -1.458
-0.039 -0.897 -1.333
1.373 -0.305 -1.446
-0.624 -0.857 -1.293
1.125 -0.71 -2.116
-1.125 -0.835 -1.808
0.218 -0.902 -1.439
0.747 -0.915 -2.454
0.311 -0.888 -2.075
0.047 -0.892 -2.103
-1.383 -0.827 -1.573
0.188 -0.858 -1.255
1.377 -0.656 -1.441
0.5 -0.065 -3.986
-1.875 -0.54 -3.151
1.254 -0.357 -1.786
-0.125 -0.871 -1.394
-0.999 -0.788 -0.762
0.752 -0.564 -3.147
0.875 -0.891 -1.914
-0.751 -0.854 -1.289
-0.039 -0.68 -1.641
0.63 -0.894 -2.754
0.631 -0.705 -1.25
-1.135 -0.842 -1.35
1.131 -0.227 -2.134
1.256 -0.165 -1.794
1.256 -0.225 -1.784
-0.628 -0.651 -0.73
0.504 -0.488 -3.844
1.016 -0.895 -1.339
0.51 -0.694 -3.724
0.379 -0.745 -1.689
-0.079 -0.669 -3.602
0.254 -0.876 -2.365
0.221 -0.698 -1.179
1.012 -0.669 -2.453
-0.316 -0.891 -1.373
1.014 -0.444 -2.44
1.012 -0.894 -1.514
0.882 -0.484 -2.725
0.631 -0.063 -3.498
0.483 -0.49 -3.84
1.053 -0.917 -1.933
-2.481 -0.786 -2.254
0.964 -0.264 -2.563
0.42 -0.907 -1.435
0.42 -0.902 -1.555
1.182 -0.108 -2.008
-0.842 -0.612 -0.707
1.182 -0.765 -1.955
0.966 -0.385 -2.545
-0.037 -0.487 -1.626
1.184 -0.122 -1.978
-1.182 -0.543 -4.157
-0.179 -0.797 -1.212
-1.309 -0.874 -1.651
-0.178 -0.635 -1.652
1.049 -0.892 -2.018
0.356 -0.89 -1.657
0.089 -0.871 -2.126
0.089 -0.88 -2.044
0.712 -0.909 -1.501
-0.84 -0.41 -4.242
-0.838 -0.894 -2.121
-1.432 -0.816 -2.737
-1.932 -0.696 -3.122
1.053 -0.772 -2.326
1.178 -0.063 -1.995
-1.801 -0.275 -3.533
1.065 -0.796 -2.293
0.971 -0.759 -2.543
0.845 -0.915 -1.403
1.067 -0.26 -2.29
0.149 -0.887 -2.224
0.596 -0.906 -1.456
0.849 -0.816 -1.527
0.486 -0.89 -2.679
1.069 -0.898 -1.435
-0.723 -0.866 -1.44
-1.819 -0.526 -3.301
-0.181 -0.837 -1.098
0.106 -0.314 -4.333
1.319 -0.904 -1.491
0.848 -0.893 -2.509
0.718 -0.079 -3.267
0.845 -0.563 -2.902
0.969 -0.507 -2.541
0.211 -0.758 -1.259
-0.36 -0.878 -1.516
1.065 -0.157 -2.282
0.18 -0.189 -4.426
0.845 -0.885 -1.873
0.602 -0.901 -1.398
0.426 -0.883 -2.585
-0.852 -0.871 -1.243
0.977 -0.731 -1.103
0.686 -0.908 -2.357
0.302 -0.874 -1.92
-0.091 -0.899 -1.433
-0.364 -0.898 -1.257
0.406 -0.897 -1.442
0.364 -0.893 -2.879
0.603 -0.16 -3.573
-0.728 -0.874 -2.691
-0.6 -0.863 -1.061
0.724 -0.884 -1.495
-0.28 -0.457 -1.66
1.2 -0.706 -1.929
0.425 -0.803 -1.376
0.559 -0.873 -3.114
0.976 -0.191 -2.548
-0.603 -0.815 -0.887
-0.171 -0.873 -1.182
0.81 -0.715 -3.022
0.122 -0.74 -4.325
0.342 -0.884 -1.868
-1.579 -0.24 -3.939
0.559 -0.763 -3.644
0.936 -0.209 -2.638
0.14 -0.742 -1.263
0.6 -0.887 -1.785
0.734 -0.488 -3.239
0.019 -0.443 -1.705
-0.019 -0.898 -2.884
-0.609 -0.86 -1.016
0.215 -0.118 -4.373
0.183 -0.887 -2.488
0.858 -0.728 -2.794
0.076 -0.871 -2.88
1.218 -0.03 -1.866
-0.305 -0.869 -1.362
0.304 -0.783 -1.202
-1.468 -0.866 -2.269
-0.86 -0.477 -4.288
-0.368 -0.689 -0.847
0.73 -0.885 -1.618
0.855 -0.89 -1.373
-1.089 -0.237 -4.295
-0.729 -0.892 -2.176
-1.835 -0.812 -2.29
1.214 -0.615 -1.872
-0.152 -0.71 -1.604
-0.732 -0.885 -2.284
0.73 -0.535 -3.161
-0.303 -0.879 -1.449
0.214 -0.876 -2.217
-0.732 -0.848 -1.63
0.605 -0.806 -1.464
-0.152 -0.57 -1.589
0.107 -0.893 -1.663
0.606 -0.889 -1.584
-0.732 -0.853 -1.01
1.384 -0.466 -1.434
1.384 -0.456 -1.414
0.472 -0.881 -1.607
-0.41 -0.823 -1.036
0.568 -0.263 -3.605
-0.568 -0.862 -1.251
0.816 -0.406 -2.979
-0.071 -0.727 -1.616
-0.235 -0.896 -1.324
0.69 -0.886 -1.314
-0.691 -0.88 -2.415
-1.132 -0.864 -1.829
1.259 -0.009 -1.778
0.69 -0.088 -3.314
-0.282 -0.868 -1.509
0.814 -0.054 -2.985
0.689 -0.907 -2.496
0.407 -0.9 -1.766
0.141 -0.892 -1.358
0.282 -0.887 -3.081
0.206 -0.871 -1.532
0.103 -0.375 -4.319
0.103 -0.879 -1.69
1.273 -0.904 -1.34
-2.034 -0.804 -2.658
1.019 -0.066 -2.405
0.822 -0.274 -2.945
0.822 -0.559 -2.942
0.698 -0.896 -2.84
0.571 -0.878 -1.478
-0.473 -0.868 -1.093
-0.143 -0.867 -1.679
-1.886 -0.28 -3.073
0.819 -0.893 -1.344
-0.472 -0.895 -1.321
-0.569 -0.89 -1.566
0.347 -0.763 -1.464
0.236 -0.889 -1.515
-0.946 -0.583 -0.779
0.572 -0.698 -3.62
1.14 -0.897 -1.81
-0.956 -0.842 -2.149
0.176 -0.773 -1.094
0.954 -0.896 -1.867
-0.011 -0.652 -1.673
0.176 -0.885 -1.431
1.283 -0.513 -1.709
-0.829 -0.87 -1.166
-0.352 -0.87 -1.416
0.955 -0.578 -2.572
-0.088 -0.71 -1.131
-1.156 -0.865 -1.899
0.953 -0.736 -1.07
1.031 -0.721 -2.36
-0.207 -0.837 -1.096
1.154 -0.724 -2.017
1.152 -0.257 -2.073
-0.036 -0.438 -1.686
-0.701 -0.867 -1.852
0.475 -0.906 -2.658
-0.072 -0.858 -1.268
-0.018 -0.609 -1.694
-0.009 -0.863 -2.171
1.404 -0.103 -1.421
-0.587 -0.861 -1.053
0.24 -0.895 -1.513
-1.424 -0.819 -2.697
-0.209 -0.494 -1.643
0.835 -0.529 -2.944
-0.089 -0.587 -1.579
0.71 -0.439 -3.292
-0.24 -0.88 -1.498
-1.047 -0.845 -1.35
0.06 -0.513 -4.374
-0.12 -0.713 -1.606
1.041 -0.917 -1.736
0.015 -0.845 -1.338
-0.015 -0.212 -4.464
-0.709 -0.869 -2.6
-0.292 -0.868 -1.124
1.295 -0.704 -1.647
0.709 -0.702 -1.283
0.479 -0.738 -1.107
0.052 -0.897 -3.158
0.583 -0.88 -1.724
-0.833 -0.618 -0.681
-0.177 -0.712 -0.953
-0.026 -0.866 -1.373
-0.291 -0.868 -1.35
-0.833 -0.851 -1.12
0.104 -0.879 -1.661
-0.052 -0.882 -1.689
1.291 -0.7 -1.669
0.239 -0.774 -4.426
0.013 -0.852 -1.159
0.046 -0.212 -4.361
-1.847 -0.594 -3.335
1.22 -0.109 -1.896
-0.305 -0.866 -1.59
0.492 -0.131 -3.897
0.492 -0.893 -2.66
0.123 -0.876 -1.713
-0.609 -0.877 -2.278
0.985 -0.711 -2.495
1.091 -0.899 -1.499
0.304 -0.9 -2.6
-0.038 -0.756 -1.706
0.038 -0.877 -1.627
0.607 -0.903 -1.691
-0.429 -0.865 -1.765
0.491 -0.902 -1.64
0.366 -0.891 -1.579
1.337 -0.137 -1.574
0.183 -0.882 -1.995
0.303 -0.775 -1.276
0.857 -0.078 -2.924
0.428 -0.781 -1.457
0.214 -0.896 -2.519
0.303 -0.878 -1.779
-0.982 -0.841 -2.183
0.606 -0.881 -2.239
-0.606 -0.869 -1.195
0.98 -0.248 -2.537
-0.182 -0.676 -1.566
-0.729 -0.634 -0.718
1.083 -0.727 -2.233
-0.091 -0.856 -1.621
-1.952 -0.804 -2.515
-0.302 -0.413 -1.728
1.329 -0.155 -1.573
-0.182 -0.582 -1.647
-0.091 -0.839 -1.629
1.327 -0.457 -1.555
1.079 -0.719 -2.244
-0.182 -0.689 -1.604
1.327 -0.32 -1.581
-0.122 -0.296 -4.532
-0.213 -0.572 -1.625
0.725 -0.223 -3.217
1.071 -0.556 -2.272
0.601 -0.351 -3.486
-1.95 -0.078 -3.131
-0.15 -0.871 -1.475
0.181 -0.885 -2.104
0.373 -0.875 -1.431
0.62 -0.905 -1.824
1.371 -0.282 -1.469
1.361 -0.202 -1.478
-0.309 -0.801 -1.121
1.238 -0.253 -1.838
0.371 -0.792 -1.275
1.234 -0.905 -1.413
1.236 -0.907 -1.277
0.743 -0.701 -1.271
-0.991 -0.894 -2.305
0.616 -0.907 -2.256
-1.126 -0.85 -0.852
-0.031 -0.64 -1.648
0.407 -0.484 -4.061
0.043 -0.88 -1.984
-0.086 -0.878 -1.507
-0.248 -0.874 -1.082
-0.563 -0.869 -1.423
0.496 -0.882 -2.605
0.939 -0.707 -1.048
0.617 -0.881 -1.689
0.742 -0.879 -2.924
-0.216 -0.676 -1.573
0.615 -0.893 -1.277
-1.109 -0.841 -1.399
-0.866 -0.873 -2.288
0.495 -0.909 -2.186
-0.614 -0.855 -1.702
0.432 -0.744 -1.791
-0.307 -0.866 -1.638
0.494 -0.899 -2.993
0.307 -0.876 -1.398
-0.108 -0.875 -1.597
-1.105 -0.839 -1.523
0.432 -0.897 -1.594
1.23 0.019 -1.867
-0.432 -0.888 -1.885
0.736 -0.332 -3.225
1.097 -0.919 -1.805
1.224 -0.254 -1.856
-0.734 -0.804 -0.833
1.095 -0.386 -2.217
0.184 -0.866 -1.477
-1.224 -0.837 -2.02
0.43 -0.807 -1.331
0.046 -0.895 -2.162
-0.757 -0.624 -0.756
-1.016 -0.838 -1.938
1.387 -0.544 -1.42
-0.254 -0.705 -0.89
-0.378 -0.877 -1.028
1.27 -0.407 -1.738
-1.139 -0.461 -4.09
0.882 -0.224 -2.768
0.079 -0.895 -1.458
-0.754 -0.883 -1.81
-0.628 -0.87 -1.885
0.055 -0.9 -2.128
0.315 -0.897 -1.661
-0.315 -0.892 -1.281
0.44 -0.885 -2.973
-0.439 -0.684 -0.762
0.75 -0.904 -2.291
-0.313 -0.88 -1.371
-0.751 -0.851 -2.534
0.877 -0.059 -2.794
0.25 -0.896 -2.225
0.5 -0.895 -1.874
0.438 -0.889 -2.035
0.313 -0.898 -1.539
-0.188 -0.871 -1.674
0.499 -0.877 -1.682
0.436 -0.877 -1.795
-0.873 -0.843 -2.521
-0.039 -0.883 -1.25
-0.25 -0.869 -1.298
-0.375 -0.863 -1.117
1.25 -0.285 -1.799
-0.156 -0.873 -1.49
0.192 -0.87 -1.565
-0.012 -0.879 -1.649
0.003 -0.88 -2.525
0.643 -0.876 -1.621
-0.096 -0.609 -1.629
1.407 -0.553 -1.374
-1.786 -0.383 -3.522
1.036 -0.556 -2.352
0.065 -0.857 -1.176
0.519 -0.898 -2.635
0.643 -0.667 -3.424
-0.112 -0.839 -1.145
0.065 -0.88 -1.224
0.13 -0.883 -1.627
0.895 -0.886 -1.905
-1.165 -0.866 -3.02
0.445 -0.876 -1.585
-0.445 -0.871 -1.205
-1.155 -0.868 -1.802
-0.02 -0.639 -1.748
0.258 -0.898 -2.063
0.643 -0.472 -3.428
1.282 0.006 -1.714
-0.258 -0.893 -1.464
0.446 -0.886 -1.369
-0.096 -0.582 -1.627
1.147 -0.081 -2.068
-1.649 -0.873 -2.042
-1.397 -0.331 -3.996
1.022 -0.918 -1.554
0.887 -0.45 -2.796
0.381 -0.894 -3.059
0.764 -0.702 -1.324
-0.319 -0.878 -1.413
0.222 -0.898 -1.558
0.89 0.015 -2.738
-0.01 -0.837 -3.442
0.764 -0.632 -3.133
0.891 -0.172 -2.768
1.407 -0.565 -1.361
-0.191 -0.516 -1.588
1.28 -0.151 -1.713
0.635 -0.706 -1.23
0.317 -0.888 -2.5
1.141 -0.923 -1.523
-0.19 -0.877 -1.451
1.147 -0.208 -2.086
0.886 -0.106 -2.718
0.064 -0.484 -4.339
1.272 -0.079 -1.718
1.02 -0.551 -2.4
0.001 -0.489 -4.379
-0.887 -0.853 -1.001
0.195 -0.702 -1.141
0.905 -0.706 -2.69
-0.033 -0.88 -1.32
0.264 -0.889 -1.404
-0.113 -0.567 -1.619
0.163 -0.898 -1.976
1.05 -0.679 -2.316
1.304 -0.153 -1.64
-1.304 -0.865 -2.086
-0.097 -0.528 -1.594
0.453 -0.891 -2.584
1.185 -0.925 -1.514
0.907 -0.039 -2.749
0.908 -0.146 -2.693
-0.907 -0.869 -1.932
0.391 -0.617 -4.07
0.656 -0.482 -3.405
0.39 -0.883 -1.497
0.195 -0.884 -2.471
1.058 -0.674 -2.277
0.904 -0.2 -2.754
0.327 -0.889 -2.332
-0.452 -0.892 -1.319
-0.655 -0.866 -1.505
1.056 -0.406 -2.329
0.897 -0.114 -2.76
0.449 -0.883 -1.413
-1.794 -0.526 -3.513
0.261 -0.906 -1.324
0.522 -0.888 -2.187
0.896 -0.892 -1.473
1.042 -0.509 -2.38
0.112 -0.87 -1.351
1.294 -0.104 -1.675
0.224 -0.876 -1.532
-0.065 -0.662 -1.606
1.419 -0.568 -1.336
-1.544 -0.818 -2.672
-0.896 -0.86 -0.858
1.175 -0.898 -1.577
-0.263 -0.854 -1.22
0.65 -0.886 -2.055
0.097 -0.72 -1.386
1.173 -0.899 -1.366
1.048 -0.379 -2.35
0.524 -0.877 -1.744
0.773 -0.906 -1.586
0.789 -0.891 -1.388
-0.083 -0.672 -1.594
-0.271 -0.412 -1.632
-1.33 -0.902 -3.422
0.197 -0.876 -1.986
-0.269 -0.873 -1.208
0.166 -0.859 -1.256
1.203 -0.004 -1.934
-0.793 -0.849 -1.669
1.09 -0.349 -2.234
0.334 -0.9 -1.52
0.459 -0.899 -1.594
0.333 -0.876 -1.397
-0.135 -0.662 -1.596
0.541 -0.891 -2.949
-0.396 -0.862 -1.32
0.458 -0.896 -2.584
1.332 -0.067 -1.557
0.198 -0.437 -4.353
-0.268 -0.707 -0.859
0.391 -0.879 -2.384
0.082 -0.462 -4.4
-1.191 -0.516 -4.139
-1.818 -0.244 -3.326
0.659 -0.83 -1.342
-0.114 -0.869 -1.492
0.228 -0.744 -1.117
-0.538 -0.868 -1.078
-0.538 -0.859 -1.869
0.787 -0.893 -2.307
0.663 -0.72 -1.155
1.197 -0.046 -1.947
1.193 -0.562 -1.924
1.072 -0.184 -2.269
0.392 -0.799 -1.261
0.909 -0.911 -2.071
-0.228 -0.702 -0.925
0.275 -0.888 -2.109
-1.477 -0.87 -2.047
0.275 -0.9 -3.083
0.928 -0.606 -2.667
-1.229 -0.891 -2.838
-0.069 -0.11 -4.432
0.925 -0.917 -1.596
-0.927 -0.866 -1.644
1.227 -0.024 -1.884
0.029 -0.892 -1.482
-0.069 -0.679 -1.607
0.029 -0.895 -1.385
1.233 -0.124 -1.844
1.229 -0.906 -1.309
0.68 -0.062 -3.337
-0.17 -0.882 -1.121
-0.806 -0.851 -1.302
0.278 -0.699 -1.175
1.108 -0.896 -1.823
-0.115 -0.872 -1.491
1.088 -0.111 -2.215
-0.167 -0.676 -3.442
0.794 -0.04 -3.044
0.794 -0.89 -1.272
0.272 -0.889 -2.817
-0.67 -0.853 -1.522
-1.59 -0.836 -3.31
-0.335 -0.704 -3.346
-0.273 -0.896 -1.477
-0.796 -0.891 -2.194
0.168 -0.855 -1.398
0.398 -0.891 -2.194
-1.217 -0.874 -1.855
0.335 -0.883 -1.552
0.274 -0.878 -1.833
0.399 -0.729 -4.061
-0.273 -0.795 -1.201
-0.547 -0.884 -2.004
-0.084 -0.758 -3.527
1.092 -0.783 -2.178
-0.042 -0.625 -4.422
-0.274 -0.713 -0.834
-0.274 -0.8 -1.605
1.098 0.012 -2.22
-1.223 -0.873 -2.43
1.372 -0.517 -1.453
1.245 -0.278 -1.805
0.936 -0.05 -2.647
0.468 -0.559 -3.94
1.247 -0.202 -1.794
0.561 -0.806 -1.442
0.937 -0.171 -2.589
-0.403 -0.894 -1.37
-0.932 -0.854 -0.921
-0.683 -0.854 -1.979
1.364 -0.253 -1.469
0.466 -0.875 -1.663
-0.557 -0.662 -0.775
0.279 -0.767 -1.292
0.809 -0.778 -2.98
0.809 -0.885 -1.947
0.559 -0.887 -1.299
-0.234 -0.596 -1.607
-0.685 -0.872 -2.342
0.07 -0.876 -1.375
-0.468 -0.867 -1.178
0.56 -0.902 -3.027
1.294 -0.257 -1.689
1.167 -0.406 -2.012
0.261 -0.896 -1.427
-1.667 -0.81 -2.308
0.772 -0.89 -2.867
0.896 -0.278 -2.763
-0.523 -0.868 -1.255
1.296 -0.292 -1.652
1.306 -0.137 -1.64
0.261 -0.868 -1.368
0.521 -0.905 -2.486
0.897 -0.371 -2.771
1.056 -0.165 -2.329
0.771 -0.912 -1.85
-0.113 -0.594 -1.623
-1.806 -0.748 -3.555
-0.897 -0.848 -1.604
-0.113 -0.588 -1.567
0.007 -0.38 -4.291
0.033 -0.879 -1.646
0.654 -0.706 -3.42
0.451 -0.904 -2.193
0.385 -0.766 -1.523
1.163 -0.921 -1.535
1.167 -0.045 -2.003
0.014 -0.845 -1.314
0.895 -0.887 -1.694
-0.522 -0.814 -0.932
-0.646 -0.866 -2.02
-0.007 -0.858 -1.352
-0.646 -0.859 -1.278
0.9 -0.321 -2.768
0.225 -0.896 -1.588
-0.527 -0.858 -1.938
-0.163 -0.836 -1.677
-1.302 -0.869 -1.973
0.65 -0.056 -3.414
-1.802 -0.652 -3.59
-0.9 -0.867 -1.978
-1.302 -0.826 -2.685
0.131 -0.663 -4.397
1.302 -0.711 -1.665
0.097 -0.877 -2.29
0.451 -0.715 -3.915
-1.054 -0.839 -1.594
1.298 -0.099 -1.647
0.525 -0.707 -1.199
0.9 -0.89 -1.796
1.296 -0.783 -1.676
-1.3 -0.836 -1.397
-1.175 -0.84 -1.226
0.387 -0.879 -2.293
0.387 -0.881 -1.561
0.525 -0.902 -3.066
0.387 -0.883 -1.413
1.298 -0.889 -1.338
1.046 -0.917 -1.754
0.775 -0.319 -3.138
0.901 -0.288 -2.713
0.387 -0.9 -2.213
0.081 -0.883 -2.177
1.046 -0.891 -2.118
1.421 -0.447 -1.337
-1.046 -0.896 -2.366
1.302 -0.693 -1.636
-0.525 -0.859 -1.215
0.113 -0.871 -1.486
1.32 -0.056 -1.597
0.057 -0.348 -4.309
-0.033 -0.768 -1.715
-0.033 -0.452 -1.651
-0.033 -0.765 -1.687
1.431 -0.635 -1.313
-0.113 -0.723 -0.969
-0.113 -0.726 -1.585
0.389 -0.882 -1.66
-0.778 -0.866 -1.338
0.534 -0.903 -3.134
0.389 -0.879 -1.751
0.267 -0.9 -1.414
0.033 -0.873 -1.945
0.033 -0.749 -1.121
0.455 -0.758 -3.868
-0.163 -0.524 -1.64
0.268 -0.419 -4.354
0.91 -0.716 -2.709
-0.066 -0.845 -1.648
1.181 -0.705 -1.002
0.392 -0.884 -2.196
0.66 -0.725 -3.377
0.049 -0.886 -1.325
0.227 -0.886 -2.251
0.097 -0.872 -1.87
-0.098 -0.49 -1.619
0.388 -0.879 -1.608
-0.097 -0.509 -4.428
1.175 -0.791 -1.983
1.052 -0.252 -2.341
1.312 -0.903 -1.511
0.905 -0.686 -1.307
1.062 -0.896 -1.529
-1.81 -0.46 -3.482
0.781 -0.892 -1.331
-0.907 -0.844 -2.028
0.532 -0.147 -3.791
0.905 -0.914 -1.566
1.185 -0.9 -1.346
0.266 -0.877 -1.842
-0.265 -0.893 -1.489
0.391 -0.438 -3.957
0.39 -0.891 -1.887
0.78 -0.889 -1.285
0.082 -0.871 -2.048
0.195 -0.878 -2.085
0.39 -0.882 -2.493
0.164 -0.885 -1.488
-0.656 -0.637 -0.795
0.781 -0.015 -3.098
0.657 -0.734 -1.299
-0.265 -0.88 -1.596
-0.655 -0.854 -2.0
1.058 -0.13 -2.295
0.033 -0.404 -4.419
1.183 -0.222 -1.972
-0.195 -0.89 -1.356
0.53 -0.902 -2.311
0.915 -0.067 -2.719
-2.169 -0.834 -2.004
-0.099 -0.588 -1.598
1.393 -0.666 -1.41
0.51 -0.628 -3.843
-0.38 -0.882 -1.563
-0.099 -0.709 -1.644
-0.454 -0.893 -1.406
0.791 -0.611 -3.018
0.792 -0.474 -3.041
0.635 -0.887 -1.568
0.396 -0.7 -4.115
1.268 -0.927 -1.596
-1.272 -0.858 -2.327
1.07 -0.582 -2.263
1.399 -0.412 -1.379
-0.329 -0.802 -1.14
0.458 -0.904 -1.827
0.318 -0.878 -2.117
0.38 -0.46 -4.129
1.02 -0.198 -2.446
-0.255 -0.673 -1.154
1.439 -0.756 -1.282
0.633 -0.89 -2.019
1.27 -0.346 -1.748
0.332 -0.893 -1.367
-0.665 -0.857 -1.668
0.508 -0.899 -2.062
0.457 -0.884 -2.691
-0.915 -0.845 -1.931
-1.814 -0.321 -3.186
-1.143 -0.25 -4.151
1.312 -0.084 -1.611
-0.332 -0.871 -1.12
-0.095 -0.724 -1.005
-0.329 -0.868 -1.131
-1.193 -0.832 -2.739
-0.509 -0.89 -1.709
0.442 -0.887 -1.306
0.135 -0.861 -1.372
-0.128 -0.54 -1.645
-0.763 -0.867 -1.584
1.074 -0.667 -2.259
-0.269 -0.884 -1.396
-1.078 -0.846 -1.095
0.764 -0.316 -3.097
0.114 -0.895 -2.362
-0.914 -0.853 -1.077
0.913 -0.003 -2.71
0.787 -0.303 -3.037
-0.196 -0.781 -1.581
0.76 -0.463 -3.114
-0.762 -0.851 -1.756
-1.197 -0.837 -2.047
-0.032 -0.875 -1.23
1.322 -0.875 -1.538
-0.268 -0.876 -1.214
-1.072 -0.851 -0.9
-1.826 -0.485 -3.439
-0.197 -0.722 -1.634
0.114 -0.882 -1.532
0.662 -0.32 -3.38
-0.662 -0.89 -1.815
-0.159 -0.794 -1.587
0.393 -0.877 -1.626
0.165 -0.663 -3.65
1.274 -0.647 -1.727
0.228 -0.874 -1.749
-0.067 -0.196 -4.463
-0.057 -0.623 -1.698
0.457 -0.906 -1.391
-0.767 -0.849 -1.714
0.083 -0.888 -2.946
-0.332 -0.764 -1.149
-0.641 -0.871 -1.824
0.539 -0.883 -2.061
0.914 -0.158 -2.709
-0.915 -0.848 -1.195
0.003 -0.416 -1.734
0.259 -0.712 -1.114
-1.036 -0.841 -1.568
-1.036 -0.842 -2.738
-1.832 -0.358 -3.325
-1.469 -0.518 -4.102
-0.096 -0.572 -1.599
1.221 -0.735 -1.042
1.092 -0.683 -2.232
-0.02 -0.341 -4.317
0.16 -0.737 -1.353
0.16 -0.861 -1.302
-0.199 -0.835 -1.118
-0.765 -0.861 -1.052
0.269 -0.881 -1.479
1.074 -0.921 -1.632
0.669 -0.906 -1.965
-0.16 -0.872 -1.238
1.342 0.022 -1.562
1.155 -0.618 -2.068
0.913 -0.25 -2.721
-0.336 -0.692 -0.856
0.888 -0.342 -2.752
-0.64 -0.858 -1.149
0.794 -0.916 -1.6
0.222 -0.805 -1.297
1.326 -0.154 -1.589
0.537 -0.902 -1.913
-1.909 -0.118 -3.118
-0.08 -0.52 -1.661
0.02 -0.878 -1.919
-1.205 -0.83 -2.929
1.328 0.023 -1.596
0.08 -0.881 -1.572
-0.788 -0.891 -2.103
0.167 -0.888 -1.785
0.068 -0.854 -1.188
0.396 -0.898 -1.394
-0.192 -0.453 -1.633
1.086 -0.061 -2.268
-0.198 -0.891 -1.412
0.007 -0.71 -1.298
0.136 -0.881 -1.565
0.385 -0.876 -2.129
0.447 -0.327 -3.961
0.028 -0.414 -1.816
1.209 -0.029 -1.924
0.272 -0.882 -2.482
-0.793 -0.889 -1.947
0.894 -0.891 -1.63
0.769 -0.888 -1.477
0.259 -0.675 -4.408
0.769 -0.889 -1.278
0.335 -0.863 -1.534
1.282 -0.56 -1.713
0.665 -0.137 -3.415
0.321 -0.9 -1.44
-0.198 -0.629 -1.564
1.288 -0.696 -1.685
0.54 -0.46 -3.734
1.407 -0.278 -1.384
0.644 -0.409 -3.439
-0.542 -0.888 -1.523
1.209 -0.111 -1.898
0.198 -0.887 -1.472
-0.223 -0.89 -1.43
0.459 -0.721 -3.911
-0.542 -0.892 -1.602
-0.012 -0.848 -1.175
-0.003 -0.846 -1.198
1.284 -0.682 -1.697
0.198 -0.877 -1.698
0.396 -0.875 -2.067
-0.793 -0.867 -2.053
0.396 -0.904 -1.339
0.006 -0.883 -2.295
-1.836 -0.626 -3.221
0.643 -0.63 -3.364
-0.006 -0.878 -2.16
0.229 -0.891 -3.05
0.024 -0.876 -1.728
0.167 -0.885 -1.882
-0.272 -0.89 -1.504
-0.405 -0.861 -1.294
0.755 -0.884 -1.625
0.794 -0.887 -1.976
0.668 -0.548 -3.35
0.467 -0.895 -2.032
0.56 -0.88 -1.888
-0.11 -0.87 -1.536
0.871 -0.908 -2.579
-1.508 -0.443 -3.93
-0.11 -0.852 -1.243
0.11 -0.729 -1.345
0.126 -0.894 -1.498
-0.373 -0.666 -1.01
0.136 -0.877 -2.557
-0.109 -0.508 -1.589
1.244 -0.757 -1.788
-0.017 -0.876 -1.29
1.135 -0.481 -2.081
1.088 -0.055 -2.238
-0.404 -0.671 -0.915
-0.933 -0.797 -0.753
0.342 -0.886 -2.114
1.375 -0.121 -1.46
0.273 -0.867 -1.355
0.279 -0.883 -2.284
1.09 -0.923 -1.449
-0.684 -0.864 -1.435
0.042 -0.723 -3.546
0.933 -0.765 -2.623
0.876 -0.699 -1.253
0.92 -0.914 -1.615
0.46 -0.882 -2.341
-0.374 -0.885 -1.453
-0.756 -0.874 -1.127
1.01 -0.786 -2.379
0.544 -0.909 -1.348
-1.637 -0.853 -2.862
-0.874 -0.866 -1.496
-1.844 -0.349 -3.121
0.202 -0.865 -1.349
-1.491 -0.863 -2.494
0.078 -0.873 -2.456
1.241 -0.432 -1.798
-1.248 -0.871 -1.626
-0.272 -0.675 -1.664
-2.486 -0.831 -2.379
-0.101 -0.701 -1.61
-0.157 -0.721 -1.663
-0.279 -0.703 -0.856
0.375 -0.892 -2.168
0.876 -0.611 -2.78
0.188 -0.875 -2.01
-0.047 -0.875 -1.505
-0.125 -0.541 -1.558
0.251 -0.706 -1.122
0.682 -0.883 -1.505
-0.047 -0.71 -1.201
0.094 -0.857 -3.549
-0.273 -0.892 -1.63
-0.797 -0.858 -0.954
-0.375 -0.867 -1.434
0.999 -0.453 -2.447
0.625 -0.271 -3.496
0.021 -0.741 -1.066
-1.002 -0.85 -0.852
0.375 -0.888 -2.135
0.875 -0.199 -2.779
1.375 0.02 -1.482
-0.078 -0.464 -1.658
-0.084 -0.873 -1.298
1.235 -0.927 -1.725
-0.125 -0.759 -1.676
0.465 -0.679 -3.904
0.252 -0.868 -1.422
0.34 -0.88 -1.328
0.314 -0.901 -2.561
0.878 -0.358 -2.788
-0.549 -0.871 -2.19
0.679 -0.337 -3.37
0.925 -0.58 -2.657
1.362 -0.107 -1.491
-0.681 -0.861 -0.998
0.462 -0.882 -1.406
0.807 -0.831 -1.353
0.085 -0.491 -4.37
-0.673 -0.629 -0.808
1.004 -0.452 -2.468
-1.108 -0.45 -4.219
-0.047 -0.869 -1.56
-0.68 -0.867 -1.29
-0.673 -0.637 -0.762
1.362 -0.292 -1.494
-0.025 -0.571 -1.682
0.876 -0.898 -2.554
1.252 -0.116 -1.821
1.256 -0.904 -1.482
-0.463 -0.861 -1.734
0.885 -0.894 -1.57
0.8 -0.885 -1.571
-1.147 -0.867 -2.535
0.753 -0.89 -1.518
1.27 -0.39 -1.756
0.255 -0.904 -1.33
1.104 -0.69 -1.275
0.439 -0.893 -3.217
-0.231 -0.666 -1.64
0.637 -0.357 -3.453
0.159 -0.879 -2.259
0.439 -0.899 -1.352
0.317 -0.9 -1.614
1.225 0.027 -1.875
-0.05 -0.869 -1.755
-1.006 -0.862 -2.555
0.462 -0.893 -3.434
-0.095 -0.881 -1.407
-0.338 -0.412 -1.847
1.354 -0.253 -1.516
0.22 -0.887 -1.514
0.128 -0.872 -1.972
-0.001 -0.87 -1.62
0.008 -0.881 -1.681
0.256 -0.763 -1.288
-1.897 -0.137 -3.122
1.397 -0.797 -1.385
1.026 -0.599 -2.372
1.229 -0.091 -1.838
1.131 -0.687 -1.29
-1.102 -0.868 -1.591
1.227 -0.618 -1.841
-0.079 -0.777 -3.384
0.506 -0.901 -1.99
-0.029 -0.894 -1.566
-0.221 -0.699 -0.994
0.507 -0.898 -2.226
1.014 -0.215 -2.447
0.506 -0.887 -1.276
-0.127 -0.876 -1.378
0.928 -0.318 -2.691
0.232 -0.872 -1.694
0.756 -0.908 -1.986
-0.687 -0.87 -1.277
-0.138 -0.758 -1.118
0.234 -0.903 -1.323
0.803 -0.601 -2.996
0.281 -0.875 -1.782
-0.758 -0.641 -0.627
-0.17 -0.869 -1.44
0.811 -0.893 -2.126
0.117 -0.891 -1.461
0.883 -0.914 -2.007
-0.633 -0.635 -0.849
-0.562 -0.863 -1.795
1.02 -0.737 -2.376
1.249 -0.358 -1.798
0.884 -0.891 -1.78
-0.254 -0.872 -1.285
0.317 -0.893 -1.632
0.468 -0.886 -2.912
0.468 -0.369 -3.941
1.358 -0.379 -1.517
0.316 -0.901 -2.879
-0.632 -0.652 -0.714
0.507 -0.901 -2.129
-0.189 -0.809 -1.673
1.247 -0.309 -1.788
0.687 -0.706 -3.326
-0.56 -0.659 -0.746
1.014 -0.016 -2.451
0.553 -0.903 -1.4
0.158 -0.885 -2.622
0.678 -0.911 -1.558
0.079 -0.878 -2.283
1.231 -0.784 -1.831
-1.624 -0.82 -1.852
1.391 -0.447 -1.407
-0.658 -0.835 -1.067
0.266 -0.872 -1.567
0.258 -0.883 -1.956
-0.892 -0.845 -1.905
0.328 -0.804 -1.337
-0.781 -0.8 -0.879
0.657 -0.884 -1.929
1.391 -0.541 -1.404
-0.127 -0.337 -4.498
1.391 -0.796 -1.409
1.268 -0.508 -1.733
-0.096 -0.576 -1.573
-0.783 -0.881 -2.701
0.784 -0.21 -3.043
1.022 -0.698 -1.072
0.909 -0.592 -2.747
0.258 -0.886 -1.734
1.157 -0.05 -2.071
1.064 -0.921 -1.691
1.018 -0.92 -1.745
0.658 -0.906 -1.563
-0.048 -0.589 -1.611
-0.048 -0.486 -1.644
-0.096 -0.844 -1.616
0.767 -0.381 -3.094
0.454 -0.903 -1.535
0.384 -0.879 -1.401
-0.049 -0.755 -1.124
1.034 -0.674 -2.368
1.27 -0.908 -1.27
0.003 -0.885 -1.207
-0.003 -0.891 -1.513
0.51 -0.458 -3.856
1.284 -0.655 -1.715
0.159 -0.88 -1.354
-0.006 -0.871 -1.993
0.006 -0.871 -1.493
0.318 -0.884 -2.866
-0.33 -0.869 -1.575
-0.001 -0.865 -3.452
0.318 -0.9 -1.749
-1.028 -0.844 -2.886
-1.151 -0.839 -1.287
0.008 -0.746 -1.157
0.636 -0.904 -3.281
-1.528 -0.825 -1.849
0.762 -0.891 -2.354
0.191 -0.749 -1.098
-1.28 -0.837 -1.473
-1.653 -0.816 -1.876
0.535 -0.904 -1.485
-0.661 -0.617 -0.93
-0.513 -0.891 -1.578
0.444 -0.88 -1.753
1.195 -0.673 -1.954
-0.067 -0.642 -4.415
0.165 -0.806 -1.237
-0.764 -0.887 -2.272
0.191 -0.882 -1.756
1.149 -0.926 -1.462
1.278 -0.68 -1.704
1.072 -0.197 -2.287
-1.03 -0.836 -2.441
-0.16 -0.573 -1.62
0.02 -0.507 -1.768
1.028 -0.919 -1.643
0.319 -0.9 -1.523
-0.537 -0.89 -1.67
1.203 -0.283 -1.92
-0.02 -0.87 -1.656
-0.02 -0.744 -0.983
0.197 -0.887 -2.183
-0.515 -0.865 -1.762
0.646 -0.889 -2.769
1.171 0.018 -2.016
0.005 -0.499 -1.67
-0.083 -0.829 -1.708
0.646 -0.166 -3.444
1.205 -0.59 -1.906
0.522 -0.879 -1.824
-0.028 -0.458 -1.699
1.324 -0.28 -1.59
0.16 -0.883 -1.43
-0.386 -0.895 -1.265
0.449 -0.606 -3.951
-0.197 -0.515 -1.557
0.516 -0.884 -1.868
0.457 -0.452 -3.941
0.129 -0.885 -1.294
0.515 -0.1 -3.769
0.332 -0.892 -2.217
0.32 -0.464 -4.275
0.449 -0.883 -1.415
-0.258 -0.621 -1.58
0.897 -0.116 -2.771
1.046 -0.894 -1.726
0.446 -0.881 -1.602
0.524 -0.884 -1.353
-0.135 -0.871 -1.362
0.024 -0.871 -2.833
0.446 -0.901 -1.872
-0.096 -0.892 -1.314
-0.006 -0.543 -1.765
0.642 -0.386 -3.461
-0.541 -0.864 -1.767
-1.286 -0.855 -3.076
1.034 -0.887 -2.191
-0.768 -0.85 -1.408
1.159 -0.281 -2.041
0.259 -0.899 -1.407
-0.519 -0.864 -1.134
-0.644 -0.863 -1.083
0.385 -0.7 -4.128
-1.04 -0.87 -1.841
-0.768 -0.631 -0.682
0.384 -0.879 -2.024
0.012 -0.878 -1.586
1.334 -0.89 -1.23
-0.667 -0.891 -1.906
-0.065 -0.719 -1.626
0.322 -0.785 -1.244
0.668 -0.306 -3.378
-0.26 -0.846 -1.603
-1.165 -0.838 -2.015
-0.112 -0.861 -2.788
0.645 -0.886 -2.189
0.192 -0.652 -4.365
0.192 -0.902 -1.31
0.893 -0.164 -2.778
-0.647 -0.833 -1.103
0.056 -0.871 -1.404
0.056 -0.87 -1.353
1.163 -0.057 -2.039
-0.919 -0.844 -1.908
-0.056 -0.873 -1.506
0.065 -0.31 -4.308
0.519 -0.91 -1.355
-0.459 -0.867 -2.013
0.448 -0.882 -3.305
0.52 -0.55 -3.792
0.112 -0.879 -2.124
0.542 -0.331 -3.704
-1.462 -0.83 -2.666
1.386 -0.31 -1.424
1.138 -0.119 -2.111
-1.842 -0.731 -3.248
1.206 -0.113 -1.926
-0.071 -0.246 -4.452
0.346 -0.894 -3.147
0.67 -0.889 -1.295
-0.365 -0.888 -1.779
0.919 -0.892 -1.811
-1.085 -0.842 -1.558
1.331 -0.255 -1.582
1.329 -0.042 -1.582
1.132 -0.921 -1.751
0.151 -0.442 -4.377
0.977 -0.915 -1.6
0.854 -0.584 -2.861
-0.151 -0.899 -1.453
-0.795 -0.865 -1.821
0.213 -0.888 -1.473
0.919 -0.303 -2.7
-1.015 -0.848 -1.201
0.794 -0.22 -3.023
-0.978 -0.844 -1.366
0.059 -0.878 -1.594
-0.272 -0.876 -1.495
1.204 -0.897 -1.702
-0.213 -0.87 -1.18
0.602 -0.871 -1.856
1.013 -0.491 -2.421
0.667 -0.908 -2.331
-0.301 -0.867 -1.652
0.978 -0.703 -1.05
0.364 -0.874 -1.416
-1.088 -0.3 -4.301
0.568 -0.878 -1.832
0.728 -0.881 -2.296
0.363 -0.887 -1.41
-0.919 -0.846 -1.59
-1.013 -0.844 -1.11
1.223 -0.583 -1.862
0.304 -0.25 -4.358
0.152 -0.749 -1.226
-1.839 -0.661 -3.077
-1.341 -0.869 -1.971
0.851 -0.374 -2.892
0.673 -0.878 -2.165
-0.601 -0.879 -1.252
-0.924 -0.846 -1.275
-0.172 -0.681 -1.6
0.141 -0.26 -4.354
0.429 -0.762 -1.639
0.282 -0.891 -3.269
-1.829 -0.104 -3.234
-1.093 -0.845 -1.259
-0.122 -0.424 -1.546
1.344 -0.638 -1.518
1.217 -0.925 -1.518
0.183 -0.872 -1.737
0.939 -0.745 -2.627
-0.608 -0.859 -1.211
0.547 -0.903 -1.783
1.337 0.025 -1.553
-0.021 -0.734 -1.039
0.471 -0.151 -3.942
-0.566 -0.891 -1.721
0.691 -0.641 -3.317
-0.85 -0.867 -1.753
1.257 -0.647 -1.777
1.13 -0.557 -2.1
1.215 -0.28 -1.891
0.199 -0.899 -1.317
0.214 -0.886 -2.253
-0.425 -0.865 -1.026
-1.214 -0.868 -1.908
1.087 -0.529 -2.214
-0.168 -0.868 -1.373
0.73 -0.343 -3.204
0.849 -0.888 -1.687
-0.084 -0.875 -1.23
0.598 -0.903 -2.38
-0.487 -0.869 -1.718
0.424 -0.904 -2.232
0.47 -0.9 -1.418
0.848 -0.907 -2.288
-0.173 -0.707 -0.987
0.214 -0.876 -2.108
0.723 -0.888 -1.55
-1.335 -0.914 -3.335
0.914 -0.896 -2.66
1.082 -0.349 -2.262
0.734 -0.537 -3.187
-0.043 -0.843 -1.237
0.538 -0.552 -3.673
-1.593 -0.861 -2.235
-0.736 -0.855 -1.168
0.367 -0.877 -1.871
0.123 -0.876 -2.14
0.984 -0.918 -1.732
0.197 -0.888 -1.285
0.736 -0.175 -3.151
-0.019 -0.879 -1.336
0.086 -0.125 -4.351
0.858 -0.918 -1.47
-0.366 -0.804 -1.124
-0.038 -0.645 -1.652
0.019 -0.893 -1.55
-0.215 -0.696 -1.027
-1.328 -0.83 -2.178
-0.456 -0.9 -1.26
1.093 -0.766 -2.21
0.537 -0.899 -2.418
1.253 -0.569 -1.775
-0.038 -0.725 -1.107
-0.734 -0.87 -1.409
1.199 -0.763 -1.898
0.228 -0.886 -2.842
-0.913 -0.849 -1.046
0.984 0.018 -2.54
0.813 -0.619 -3.001
-0.606 -0.811 -0.922
-0.984 -0.859 -0.799
-0.038 -0.694 -1.651
1.337 -0.526 -1.559
0.334 -0.739 -1.121
0.396 -0.902 -2.844
1.084 -0.504 -2.248
0.667 -0.885 -2.235
-1.855 -0.412 -3.395
1.082 -0.922 -1.93
0.863 -0.895 -1.607
0.792 -0.763 -3.041
-0.396 -0.867 -1.137
0.369 -0.88 -1.717
1.211 -0.696 -1.053
-0.917 -0.862 -2.139
-2.285 -0.774 -1.87
-0.245 -0.89 -1.486
1.083 -0.802 -2.222
-0.541 -0.87 -1.153
-0.916 -0.868 -1.801
1.087 -0.019 -2.232
-0.604 -0.891 -1.65
0.914 -0.912 -2.042
-0.612 -0.856 -1.856
0.368 -0.887 -2.85
-1.333 -0.266 -4.114
0.842 -0.615 -2.86
-0.105 -0.804 -1.17
0.828 -0.888 -1.587
0.391 -0.664 -4.156
1.184 -0.483 -1.956
0.358 -0.882 -2.195
-0.217 -0.688 -1.61
0.829 -0.365 -2.957
0.433 -0.889 -2.299
-0.909 -0.834 -2.841
0.954 -0.162 -2.593
0.908 -0.896 -2.141
-0.248 -0.428 -1.791
0.58 -0.735 -3.616
0.296 -0.89 -1.455
0.266 -0.551 -4.479
-0.579 -0.89 -2.027
0.954 -0.896 -1.382
-1.559 -0.379 -3.946
-1.109 -0.87 -1.505
-0.098 -0.873 -1.597
0.841 -0.915 -1.593
-0.352 -0.888 -1.474
-0.371 -0.871 -1.056
1.16 -0.037 -2.03
0.454 -0.904 -1.916
0.022 -0.879 -1.39
-0.031 -0.879 -1.339
1.064 -0.075 -2.3
0.216 -0.887 -2.672
0.21 -0.881 -1.847
0.955 -0.381 -2.62
-0.026 -0.564 -1.736
0.054 -0.38 -4.311
0.041 -0.88 -1.543
-0.29 -0.758 -1.606
-0.247 -0.677 -1.114
-1.037 -0.84 -2.35
-0.965 -0.864 -1.605
-0.077 -0.711 -1.134
-1.057 -0.103 -4.183
1.305 -0.536 -1.627
-1.309 -0.833 -1.673
0.83 -0.912 -1.585
0.783 -0.711 -1.198
0.353 -0.872 -1.432
1.23 0.002 -1.848
1.16 -0.898 -1.371
0.74 -0.324 -3.193
1.23 -0.769 -1.83
-0.295 -0.888 -1.704
-0.536 -0.86 -0.979
-0.589 -0.857 -2.097
0.785 -0.892 -2.031
1.176 -0.898 -1.315
0.165 -0.893 -1.379
0.419 -0.881 -2.021
0.7 -0.892 -1.38
0.147 -0.879 -1.721
0.963 -0.126 -2.567
0.067 -0.746 -1.144
-0.994 -0.886 -2.44
0.147 -0.883 -1.8
0.42 -0.172 -4.016
0.186 -0.875 -2.193
-0.419 -0.89 -1.282
-0.155 -0.841 -1.187
-0.134 -0.877 -1.325
0.372 -0.898 -1.332
0.841 -0.817 -1.47
1.117 -0.118 -2.154
0.839 -0.621 -2.9
1.201 -0.475 -1.947
1.404 -0.595 -1.382
-0.31 -0.872 -1.143
0.994 -0.662 -2.467
1.363 -0.663 -1.472
-0.072 -0.515 -1.665
-1.613 -0.195 -3.878
-0.248 -0.768 -1.678
1.111 -0.604 -2.152
1.195 -0.72 -1.931
-1.928 -0.563 -3.109
-1.068 -0.221 -4.132
0.534 -0.887 -1.436
0.196 -0.886 -1.76
0.962 -0.618 -2.546
0.418 -0.904 -1.347
0.049 -0.89 -2.053
-1.486 -0.371 -3.978
0.992 -0.896 -1.581
-0.062 -0.894 -1.479
0.618 -0.883 -1.68
1.406 -0.188 -1.401
0.178 -0.894 -1.599
0.962 -0.896 -2.152
0.218 -0.746 -1.366
-0.573 -0.866 -1.53
0.435 -0.234 -4.003
-0.218 -0.866 -1.486
-1.369 -0.865 -2.12
1.246 -0.479 -1.815
0.572 -0.909 -3.172
0.823 -0.889 -1.578
1.248 -0.35 -1.794
0.361 -0.532 -4.028
0.573 -0.884 -2.021
0.747 -0.067 -3.187
-0.361 -0.669 -3.363
-1.148 -0.865 -1.741
-0.574 -0.869 -1.195
0.299 -0.884 -1.346
-0.872 -0.89 -2.42
1.054 -0.324 -2.326
-0.451 -0.895 -1.51
-1.563 -0.806 -3.015
-0.824 -0.872 -1.098
-0.175 -0.713 -0.938
0.387 -0.806 -1.31
1.19 -0.788 -1.914
-0.451 -0.822 -0.956
-0.149 -0.746 -3.443
0.824 -0.887 -2.476
0.595 -0.1 -3.552
0.901 -0.225 -2.756
1.148 -0.265 -2.062
-0.053 -0.289 -4.46
0.451 -0.106 -3.976
0.569 -0.896 -3.024
0.874 -0.916 -1.685
0.327 -0.786 -1.225
0.297 -0.884 -1.423
0.846 -0.344 -2.902
-0.694 -0.66 -0.613
-0.113 -0.774 -1.613
0.41 -0.881 -1.634
1.061 -0.101 -2.32
1.315 -0.023 -1.637
0.655 -0.905 -2.362
0.297 -0.902 -1.341
1.192 -0.706 -0.997
1.31 -0.903 -1.454
1.129 -0.351 -2.114
-0.41 -0.771 -1.149
1.063 -0.914 -1.953
-0.286 -0.705 -0.841
0.876 -0.721 -1.139
1.375 0.002 -1.468
0.571 -0.879 -1.669
0.998 -0.262 -2.487
-0.066 -0.894 -2.942
0.037 -0.894 -2.193
1.179 -0.684 -1.999
0.078 -0.857 -1.301
0.143 -0.595 -4.413
-0.187 -0.888 -1.495
0.374 -0.884 -1.291
-0.946 -0.89 -2.71
-2.237 -0.384 -3.215
0.066 -0.891 -1.568
-0.039 -0.84 -1.309
0.389 -0.892 -2.238
-0.572 -0.868 -1.62
0.749 -0.89 -1.609
-1.811 -0.444 -3.355
0.592 -0.673 -3.651
-0.499 -0.669 -0.788
0.312 -0.879 -1.548
1.309 -0.232 -1.643
-0.265 -0.711 -1.662
-1.06 -0.834 -2.995
0.529 -0.88 -2.788
-0.113 -0.502 -1.616
0.499 -0.905 -3.224
-0.18 -0.71 -0.968
0.875 -0.703 -1.209
0.084 -0.903 -3.043
-0.956 -0.847 -1.15
0.58 -0.498 -3.599
-0.094 -0.715 -1.075
-2.059 -0.812 -1.931
-0.042 -0.893 -2.648
1.25 -0.769 -1.805
0.168 -0.884 -1.365
-0.843 -0.854 -0.954
-2.059 -0.798 -1.967
-0.477 -0.89 -1.569
0.336 -0.881 -1.462
0.145 -0.856 -1.347
0.084 -0.88 -1.661
0.296 -0.874 -3.082
0.579 -0.881 -3.095
0.088 -0.882 -2.072
-0.841 -0.892 -2.269
1.16 -0.742 -2.066
0.965 -0.466 -2.575
1.248 -0.326 -1.826
0.477 -0.9 -1.704
0.876 -0.55 -2.796
-0.037 -0.845 -1.687
0.591 -0.882 -1.312
-1.791 -0.822 -2.048
1.129 -0.515 -2.125
0.438 -0.276 -4.0
-0.583 -0.839 -1.141
-0.957 -0.868 -2.591
0.966 -0.25 -2.535
-0.627 -0.861 -1.021
-0.353 -0.868 -1.221
-0.478 -0.867 -1.92
0.438 -0.903 -1.401
-0.674 -0.854 -1.609
0.673 -0.886 -1.604
-0.715 -0.897 -1.94
0.29 -0.898 -1.739
-1.221 -0.317 -4.258
0.707 -0.911 -1.551
-1.84 -0.185 -3.244
-1.041 -0.877 -1.329
-1.217 -0.833 -2.129
1.414 -0.396 -1.357
1.039 -0.918 -1.658
-1.043 -0.854 -0.834
1.336 -0.101 -1.566
0.208 -0.883 -2.496
-0.589 -0.872 -1.153
1.119 -0.755 -2.11
-0.839 -0.876 -2.339
-0.291 -0.893 -1.508
0.089 -0.808 -1.24
-0.958 -0.866 -1.393
-0.272 -0.871 -1.166
0.837 -0.116 -2.845
0.796 -0.89 -1.534
1.121 -0.339 -2.155
-0.25 -0.849 -1.635
0.374 -0.673 -4.165
0.546 -0.763 -3.739
-1.178 -0.843 -1.174
0.75 -0.211 -3.135
0.417 -0.9 -1.514
-0.039 -0.631 -1.63
0.795 -0.91 -1.667
-1.219 -0.837 -1.968
0.919 -0.233 -2.679
0.795 -0.894 -2.077
0.962 -0.652 -2.568
0.998 -0.896 -2.016
-0.125 -0.697 -1.633
0.583 -0.904 -1.581
0.089 -0.893 -1.575
-1.5 -0.821 -2.164
0.115 -0.881 -1.438
-0.293 -0.547 -1.667
1.373 -0.728 -1.452
0.712 -0.885 -1.667
-1.713 -0.168 -3.909
0.146 -0.879 -1.818
0.115 -0.882 -1.864
0.355 -0.798 -1.199
-0.686 -0.89 -1.788
-0.811 -0.891 -1.964
-1.045 -0.277 -4.173
0.343 -0.891 -2.053
1.229 -0.789 -1.83
-0.378 -0.889 -1.747
-0.804 -0.84 -2.535
0.838 -0.176 -2.896
0.836 -0.165 -2.86
-0.812 -0.851 -1.561
-0.586 -0.869 -1.332
0.029 -0.894 -2.019
0.138 -0.771 -4.398
0.138 -0.895 -2.097
-0.678 -0.857 -1.06
0.209 -0.738 -1.151
0.276 -0.899 -1.69
0.015 -0.9 -3.052
1.293 -0.069 -1.641
1.045 -0.529 -2.349
-0.756 -0.866 -1.949
-1.137 -0.868 -2.227
1.174 -0.071 -1.993
1.293 -0.931 -1.595
1.102 -0.554 -2.166
-0.24 -0.884 -1.585
-0.253 -0.87 -1.403
-2.395 -0.787 -2.566
-0.178 -0.483 -1.548
0.11 -0.135 -4.369
-0.06 -0.879 -1.455
-0.015 -0.498 -1.679
-0.127 -0.5 -1.557
0.418 -0.42 -4.065
1.235 -0.183 -1.834
-1.172 -0.84 -2.97
0.835 -0.888 -1.671
-0.015 -0.89 -1.648
0.937 -0.131 -2.643
0.712 -0.888 -1.688
-0.482 -0.814 -0.969
0.679 -0.907 -1.747
1.112 -0.015 -2.198
0.316 -0.67 -4.235
0.583 -0.042 -3.637
-0.963 -0.845 -1.632
0.632 -0.883 -1.703
0.586 -0.908 -1.446
-0.562 -0.868 -2.106
1.237 -0.692 -1.806
-0.406 -0.866 -1.076
-0.293 -0.776 -1.089
0.406 -0.878 -1.688
0.55 -0.88 -1.947
0.629 0.038 -3.534
0.188 -0.809 -1.244
0.676 -0.722 -1.151
0.965 -0.6 -2.572
0.4 -0.896 -2.026
-1.881 -0.533 -3.11
-0.482 -0.87 -1.669
-0.275 -0.65 -1.592
-0.754 -0.863 -0.886
-0.377 -0.865 -1.374
0.231 -0.89 -1.32
0.157 -0.863 -1.635
1.133 -0.238 -2.122
-0.55 -0.864 -1.131
0.674 -0.781 -3.272
1.041 -0.443 -2.34
-0.8 -0.871 -1.363
0.177 -0.889 -3.271
-0.708 -0.639 -0.724
-1.008 -0.848 -1.007
-1.225 -0.873 -1.59
1.049 -0.918 -2.061
0.479 -0.883 -1.517
0.11 -0.878 -1.799
-0.401 -0.864 -1.53
-0.148 -0.573 -1.558
-0.755 -0.872 -1.118
-0.505 -0.868 -1.039
-0.058 -0.717 -1.67
1.352 -0.269 -1.517
-0.104 -0.892 -1.464
0.482 -0.232 -3.879
0.552 -0.882 -2.021
-0.581 -0.894 -1.679
0.833 -0.819 -1.503
0.415 -0.805 -1.378
-0.42 -0.866 -1.727
0.482 -0.906 -2.135
0.42 -0.878 -1.589
1.383 -0.063 -1.463
1.104 -0.296 -2.191
-1.104 -0.84 -1.931
-1.291 -0.833 -1.342
-2.477 -0.804 -2.082
-0.832 -0.616 -0.694
1.057 -0.35 -2.296
1.055 -0.611 -2.319
-1.801 -0.808 -2.24
0.377 -0.89 -2.298
0.679 -0.892 -2.612
-1.108 -0.322 -4.132
0.591 -0.632 -3.61
0.358 -0.878 -1.851
0.863 -0.751 -2.861
0.806 -0.089 -3.05
0.591 -0.888 -1.486
1.353 -0.724 -1.503
0.977 -0.799 -2.547
-0.965 -0.797 -0.729
-0.027 -0.252 -4.382
1.372 -0.689 -1.463
-0.027 -0.869 -1.398
0.49 -0.587 -3.87
1.057 -0.92 -1.618
0.302 -0.873 -1.509
-1.333 -0.872 -1.708
-0.245 -0.845 -1.218
-0.342 -0.874 -1.499
-1.061 -0.842 -1.539
-0.234 -0.487 -1.623
0.28 -0.877 -2.203
0.296 -0.888 -3.121
-0.932 -0.846 -1.746
-1.487 -0.503 -3.982
-0.403 -0.889 -1.677
1.184 -0.133 -1.967
0.307 -0.89 -1.844
0.99 -0.607 -2.471
-0.555 -0.675 -0.688
0.432 -0.896 -2.55
-0.278 -0.772 -1.085
1.309 -0.195 -1.615
0.139 -0.892 -1.33
-0.978 -0.867 -1.941
-0.154 -0.493 -1.639
0.935 -0.914 -1.801
-0.602 -0.892 -1.829
0.936 -0.493 -2.595
0.341 -0.887 -2.299
1.436 -0.766 -1.288
-0.278 -0.674 -1.087
0.28 -0.889 -2.302
-0.185 -0.891 -1.407
-0.17 -0.647 -1.624
0.484 -0.906 -1.428
-0.68 -0.659 -0.618
0.68 -0.888 -2.455
0.985 -0.016 -2.536
0.43 -0.444 -4.026
0.101 -0.876 -1.413
1.11 -0.896 -1.698
-0.3 -0.889 -1.402
-1.116 -0.888 -2.8
0.278 -0.892 -1.381
-0.075 -0.683 -3.417
-0.122 -0.893 -1.493
-0.977 -0.854 -1.016
1.112 -0.896 -1.585
-0.279 -0.884 -1.321
0.488 -0.884 -1.534
-0.023 -0.878 -1.696
1.368 -0.306 -1.461
0.601 -0.881 -1.756
1.239 -0.482 -1.815
0.092 -0.872 -1.39
1.349 -0.03 -1.515
0.202 -0.897 -1.609
0.85 -0.913 -1.501
0.466 -0.879 -2.085
0.723 -0.548 -3.224
-0.971 -0.852 -0.855
-1.243 -0.872 -1.596
0.738 -0.355 -3.179
0.808 -0.212 -2.947
-0.467 -0.869 -1.443
-0.685 -0.858 -0.947
-0.807 -0.868 -1.419
-1.614 -0.869 -3.44
-0.171 -0.89 -1.639
-0.467 -0.889 -1.713
-0.28 -0.849 -1.185
0.181 -0.867 -1.518
1.241 -0.798 -1.81
-0.368 -0.771 -1.114
1.241 -0.922 -1.759
-0.027 -0.831 -1.71
1.319 -0.715 -1.61
-0.369 -0.863 -1.705
0.405 -0.882 -1.493
-0.722 -0.85 -2.49
-0.3 -0.866 -1.604
0.035 -0.879 -1.34
0.306 -0.887 -3.084
1.101 -0.122 -2.186
1.069 -0.892 -2.038
-0.337 -0.876 -1.055
0.497 -0.88 -1.519
-1.446 -0.86 -2.423
1.319 -0.224 -1.598
0.186 -0.879 -1.343
0.181 -0.571 -4.313
0.423 -0.27 -4.067
0.869 -0.887 -1.751
0.361 -0.903 -1.33
0.799 -0.194 -3.035
0.106 -0.878 -1.942
0.801 -0.705 -1.233
-0.62 -0.87 -1.146
-1.35 -0.872 -1.988
0.4 -0.874 -1.59
-0.675 -0.853 -1.394
1.069 -0.898 -1.568
0.337 -0.891 -1.82
-0.55 -0.86 -1.751
-0.487 -0.866 -1.21
0.275 -0.897 -2.526
-0.799 -0.806 -0.805
0.435 -0.89 -3.457
0.423 -0.879 -1.469
-1.479 -0.825 -2.23
1.19 -0.273 -1.974
-0.598 -0.888 -1.57
1.244 -0.412 -1.824
-0.972 -0.845 -1.497
0.723 -0.893 -1.7
1.115 -0.902 -1.528
1.115 -0.066 -2.158
0.846 -0.894 -1.609
-0.181 -0.772 -1.666
-0.551 -0.892 -1.645
-0.243 -0.866 -1.568
0.552 -0.711 -3.602
1.121 -0.695 -2.139
-0.243 -0.877 -1.629
1.227 -0.504 -1.857
0.995 -0.558 -2.468
1.323 -0.249 -1.59
0.463 -0.877 -1.63
-0.211 -0.775 -1.641
0.992 -0.718 -2.466
1.061 -0.117 -2.305
1.077 -0.074 -2.27
0.74 -0.272 -3.17
0.926 -0.917 -1.545
0.468 -0.758 -1.732
1.356 -0.045 -1.522
0.99 -0.915 -2.137
0.971 -0.287 -2.578
-0.343 -0.89 -1.589
-1.356 -0.836 -2.501
0.15 -0.883 -1.839
1.315 -0.094 -1.605
-1.315 -0.868 -1.646
0.726 -0.833 -1.301
-0.234 -0.526 -1.65
0.977 -0.582 -2.524
-0.851 -0.866 -1.984
-0.281 -0.877 -1.313
1.063 -0.917 -2.141
0.601 -0.729 -1.122
-0.069 -0.894 -1.384
1.122 -0.924 -1.823
1.122 -0.922 -1.596
1.361 -0.595 -1.472
1.2 0.005 -1.946
-1.859 -0.188 -3.184
0.488 -0.738 -3.787
0.676 -0.2 -3.406
0.36 -0.892 -1.995
-0.062 -0.52 -1.635
1.059 -0.919 -1.711
0.852 -0.861 -1.616
-0.248 -0.89 -1.38
-0.339 -0.894 -1.521
0.339 -0.889 -3.032
-0.969 -0.841 -1.882
0.217 -0.872 -1.474
0.851 -0.634 -2.929
-0.339 -0.883 -1.46
0.728 -0.813 -1.43
-0.484 -0.891 -1.67
-0.717 -0.801 -0.909
0.484 -0.782 -3.847
-0.186 -0.723 -0.881
0.679 -0.887 -1.551
0.201 -0.883 -2.694
-0.804 -0.884 -2.421
1.19 -0.575 -1.953
-0.402 -0.87 -1.809
1.359 -0.201 -1.494
0.211 -0.88 -1.371
0.464 -0.903 -1.355
0.434 -0.811 -1.318
0.87 -0.373 -2.804
0.31 -0.878 -1.759
0.746 -0.362 -3.209
0.87 -0.893 -1.399
0.155 -0.895 -2.002
-0.996 -0.855 -0.799
0.435 -0.899 -1.455
0.745 -0.908 -1.664
0.745 -0.909 -1.715
-1.115 -0.238 -4.257
0.372 -0.875 -1.594
-0.031 -0.757 -1.677
0.496 -0.881 -2.002
0.993 -0.594 -2.502
1.111 -0.608 -2.18
0.744 -0.82 -1.414
-0.938 -0.882 -2.91
-0.093 -0.839 -3.391
0.814 -0.052 -2.959
0.37 -0.894 -1.39
-0.062 -0.566 -1.686
0.615 -0.886 -1.607
0.185 -0.887 -1.283
1.359 -0.208 -1.502
1.357 -0.246 -1.492
1.232 -0.503 -1.836
-1.251 -0.833 -1.581
0.866 -0.891 -2.123
-0.563 -0.816 -0.982
-0.876 -0.866 -1.469
0.375 -0.903 -1.719
0.313 -0.893 -1.346
-0.25 -0.557 -1.573
-0.25 -0.854 -1.595
-0.039 -0.76 -1.664
0.876 -0.3 -2.806
0.437 -0.903 -3.164
1.123 -0.525 -2.108
-0.374 -0.881 -1.573
-1.246 -0.867 -1.734
1.369 -0.113 -1.484
0.281 -0.895 -1.324
0.873 -0.897 -1.264
0.812 -0.779 -2.941
0.406 -0.903 -1.607
0.499 -0.901 -2.061
0.687 -0.398 -3.3
0.373 -0.876 -2.713
-1.492 -0.878 -3.292
1.367 -0.376 -1.47
1.369 -0.879 -1.459
0.109 -0.872 -1.977
-0.311 -0.871 -1.176
0.304 -0.901 -2.326
-1.396 -0.829 -1.747
-1.218 -0.868 -1.617
-1.218 -0.867 -1.691
0.28 -0.877 -2.139
-0.043 -0.869 -1.608
-0.174 -0.515 -1.584
0.468 -0.7 -1.242
0.572 -0.731 -3.599
-0.733 -0.875 -1.087
0.686 -0.375 -3.334
-0.038 -0.87 -2.539
0.304 -0.87 -1.332
0.174 -0.887 -1.306
1.265 -0.788 -1.745
1.267 -0.252 -1.773
0.813 -0.072 -2.955
-1.093 -0.852 -0.838
-0.14 -0.897 -1.277
0.28 -0.891 -1.471
0.152 -0.722 -4.386
0.815 -0.583 -2.967
1.138 -0.923 -1.493
-0.733 -0.854 -1.391
1.001 -0.269 -2.454
1.13 -0.421 -2.135
-0.935 -0.798 -0.739
1.003 -0.506 -2.464
1.142 -0.297 -2.101
1.392 -0.295 -1.409
1.015 -0.754 -2.397
0.982 -0.53 -2.46
-0.038 -0.35 -4.398
0.855 -0.685 -2.847
0.605 -0.406 -3.551
0.086 -0.885 -1.549
1.253 -0.725 -1.776
0.038 -0.582 -4.326
0.304 -0.291 -4.326
1.337 -0.782 -1.57
-0.172 -0.89 -1.429
0.57 -0.726 -3.666
0.059 -0.883 -1.328
0.826 -0.708 -2.974
0.806 -0.263 -2.991
0.341 -0.874 -1.693
-0.288 -0.82 -1.699
-2.174 -0.597 -3.145
-0.412 -0.879 -1.809
0.103 -0.884 -1.564
-0.237 -0.772 -1.09
0.237 -0.906 -1.299
-1.898 -0.497 -3.098
-0.412 -0.871 -1.026
-0.73 -0.853 -1.304
-0.934 -0.863 -1.406
-1.118 -0.862 -2.585
-0.824 -0.848 -1.853
1.148 -0.734 -2.078
-0.559 -0.867 -1.985
1.208 -0.256 -1.901
1.021 -0.516 -2.443
-1.085 -0.87 -1.421
0.604 -0.899 -1.888
-0.559 -0.893 -1.686
-0.489 -0.894 -1.496
-0.685 -0.855 -1.01
1.146 -0.728 -1.096
-0.615 -0.87 -1.166
-1.134 -0.237 -4.226
1.257 -0.494 -1.772
-0.108 -0.536 -1.62
0.345 -0.901 -1.448
1.233 -0.08 -1.848
-1.355 -0.86 -3.437
-1.851 -0.402 -3.427
0.051 -0.882 -1.366
1.23 -0.308 -1.837
1.233 -0.76 -1.843
-0.565 -0.661 -0.729
1.005 -0.914 -2.097
-0.085 -0.616 -1.636
0.865 -0.852 -1.623
-0.307 -0.886 -1.72
0.815 -0.885 -2.139
0.139 -0.589 -4.334
1.237 -0.294 -1.845
0.494 -0.895 -3.334
1.108 -0.924 -1.457
-0.465 -0.889 -1.934
0.864 -0.7 -1.234
0.172 -0.898 -2.167
-0.564 -0.861 -1.021
0.139 -0.876 -1.908
1.228 -0.582 -1.841
-0.738 -0.872 -1.119
0.344 -0.766 -3.828
0.469 -0.514 -3.874
0.612 -0.885 -2.165
0.612 -0.887 -1.997
0.862 -0.643 -2.856
0.278 -0.889 -1.571
