#.PCD v0.7 - Point Cloud Data file format
VERSION 0.7
FIELDS x y z
SIZE 4 4 4
TYPE F F F
COUNT 1 1 1
WIDTH 2346
HEIGHT 1
VIEWPOINT 0 0 0 1 0 0 0
POINTS 2346 float
DATA ascii
-0.608 -0.806 -1.652
-0.629 -0.807 -1.676
-0.568 -0.806 -1.634
-0.626 -0.805 -1.705
-0.488 -0.811 -1.568
-0.555 -0.809 -1.589
-0.571 -0.808 -1.610
-0.606 -0.807 -1.628
-0.534 -0.806 -1.684
-0.520 -0.808 -1.636
-0.578 -0.809 -1.706
-0.515 -0.806 -1.662
-0.538 -0.809 -1.658
-0.609 -0.806 -1.704
-0.518 -0.808 -1.614
-0.506 -0.811 -1.588
-0.576 -0.808 -1.682
-0.483 -0.818 -1.589
-0.588 -0.806 -1.708
-0.503 -0.809 -1.617
-0.471 -0.812 -1.620
-0.502 -0.809 -1.640
-0.553 -0.808 -1.660
-0.446 -0.806 -1.601
-0.483 -0.807 -1.597
-0.535 -0.808 -1.637
-0.552 -0.806 -1.685
-0.590 -0.806 -1.681
-0.487 -0.808 -1.621
-0.574 -0.809 -1.656
-0.483 -0.809 -1.690
-0.538 -0.808 -1.708
-0.512 -0.815 -1.682
-0.576 -0.808 -1.734
-0.438 -0.811 -1.594
-0.434 -0.809 -1.622
-0.534 -0.806 -1.735
-0.501 -0.808 -1.713
-0.420 -0.810 -1.624
-0.435 -0.810 -1.646
-0.465 -0.807 -1.643
-0.452 -0.810 -1.621
-0.491 -0.813 -1.637
-0.478 -0.805 -1.667
-0.511 -0.804 -1.716
-0.452 -0.809 -1.643
-0.497 -0.805 -1.664
-0.550 -0.804 -1.736
-0.464 -0.807 -1.667
-0.412 -0.805 -1.602
-0.549 -0.805 -1.712
-0.514 -0.805 -1.687
-0.442 -0.805 -1.689
-0.408 -0.806 -1.694
-0.461 -0.806 -1.712
-0.461 -0.806 -1.691
-0.447 -0.809 -1.667
-0.409 -0.806 -1.669
-0.495 -0.805 -1.763
-0.458 -0.805 -1.739
-0.481 -0.806 -1.714
-0.494 -0.805 -1.739
-0.401 -0.810 -1.627
-0.369 -0.811 -1.628
-0.429 -0.808 -1.667
-0.419 -0.812 -1.645
-0.438 -0.803 -1.716
-0.384 -0.810 -1.648
-0.476 -0.803 -1.764
-0.396 -0.809 -1.668
-0.477 -0.805 -1.739
-0.386 -0.811 -1.626
-0.515 -0.806 -1.736
-0.425 -0.805 -1.691
-0.395 -0.807 -1.649
-0.352 -0.811 -1.629
-0.424 -0.806 -1.743
-0.374 -0.805 -1.673
-0.345 -0.809 -1.678
-0.373 -0.807 -1.723
-0.422 -0.806 -1.771
-0.362 -0.809 -1.673
-0.375 -0.807 -1.698
-0.348 -0.809 -1.652
-0.317 -0.811 -1.655
-0.429 -0.808 -1.715
-0.361 -0.808 -1.652
-0.437 -0.803 -1.743
-0.392 -0.808 -1.720
-0.362 -0.810 -1.699
-0.405 -0.806 -1.747
-0.442 -0.806 -1.767
-0.456 -0.806 -1.765
-0.331 -0.810 -1.655
-0.408 -0.807 -1.720
-0.392 -0.808 -1.694
-0.353 -0.808 -1.749
-0.421 -0.806 -1.795
-0.337 -0.808 -1.751
-0.350 -0.807 -1.775
-0.389 -0.808 -1.746
-0.344 -0.810 -1.700
-0.383 -0.806 -1.798
-0.386 -0.806 -1.772
-0.298 -0.809 -1.657
-0.285 -0.813 -1.656
-0.308 -0.809 -1.702
-0.309 -0.807 -1.679
-0.338 -0.807 -1.726
-0.275 -0.806 -1.682
-0.294 -0.808 -1.678
-0.406 -0.807 -1.770
-0.328 -0.809 -1.678
-0.399 -0.804 -1.798
-0.324 -0.808 -1.701
-0.325 -0.810 -1.726
-0.368 -0.805 -1.749
-0.357 -0.808 -1.723
-0.292 -0.809 -1.704
-0.370 -0.807 -1.772
-0.318 -0.807 -1.753
-0.244 -0.809 -1.685
-0.231 -0.812 -1.685
-0.243 -0.810 -1.710
-0.349 -0.808 -1.801
-0.306 -0.809 -1.729
-0.317 -0.809 -1.778
-0.317 -0.810 -1.803
-0.271 -0.808 -1.733
-0.302 -0.808 -1.754
-0.291 -0.811 -1.729
-0.261 -0.809 -1.682
-0.285 -0.809 -1.755
-0.350 -0.810 -1.829
-0.277 -0.811 -1.704
-0.259 -0.810 -1.707
-0.300 -0.809 -1.778
-0.259 -0.813 -1.731
-0.362 -0.803 -1.802
-0.330 -0.806 -1.805
-0.334 -0.808 -1.775
-0.281 -0.808 -1.780
-0.268 -0.809 -1.756
-0.281 -0.810 -1.807
-0.213 -0.814 -1.712
-0.278 -0.811 -1.834
-0.236 -0.810 -1.761
-0.248 -0.810 -1.783
-0.205 -0.809 -1.739
-0.288 -0.807 -1.862
-0.240 -0.810 -1.736
-0.228 -0.811 -1.711
-0.313 -0.810 -1.833
-0.329 -0.807 -1.832
-0.265 -0.809 -1.781
-0.260 -0.807 -1.809
-0.231 -0.809 -1.784
-0.219 -0.811 -1.760
-0.295 -0.806 -1.807
-0.253 -0.811 -1.758
-0.294 -0.809 -1.836
-0.195 -0.812 -1.715
-0.225 -0.812 -1.736
-0.209 -0.809 -1.810
-0.244 -0.809 -1.807
-0.181 -0.814 -1.715
-0.140 -0.809 -1.744
-0.272 -0.808 -1.863
-0.169 -0.810 -1.765
-0.212 -0.809 -1.784
-0.241 -0.810 -1.835
-0.173 -0.810 -1.741
-0.202 -0.809 -1.762
-0.220 -0.806 -1.839
-0.180 -0.810 -1.788
-0.158 -0.812 -1.741
-0.255 -0.810 -1.864
-0.191 -0.812 -1.738
-0.193 -0.810 -1.813
-0.197 -0.809 -1.786
-0.256 -0.807 -1.837
-0.224 -0.806 -1.810
-0.163 -0.813 -1.718
-0.186 -0.811 -1.763
-0.234 -0.808 -1.865
-0.148 -0.814 -1.718
-0.142 -0.810 -1.815
-0.172 -0.811 -1.840
-0.094 -0.813 -1.743
-0.107 -0.808 -1.744
-0.174 -0.809 -1.814
-0.165 -0.811 -1.789
-0.213 -0.808 -1.892
-0.131 -0.811 -1.790
-0.136 -0.810 -1.767
-0.207 -0.811 -1.838
-0.167 -0.810 -1.871
-0.103 -0.808 -1.769
-0.195 -0.807 -1.895
-0.158 -0.809 -1.814
-0.153 -0.811 -1.765
-0.200 -0.809 -1.867
-0.147 -0.810 -1.790
-0.184 -0.810 -1.868
-0.121 -0.813 -1.766
-0.219 -0.809 -1.865
-0.187 -0.807 -1.842
-0.126 -0.812 -1.742
-0.154 -0.809 -1.843
-0.114 -0.810 -1.792
-0.132 -0.809 -1.872
-0.093 -0.810 -1.821
-0.106 -0.816 -1.844
-0.128 -0.811 -1.902
-0.161 -0.809 -1.896
-0.072 -0.811 -1.772
-0.083 -0.812 -1.795
-0.140 -0.815 -1.841
-0.099 -0.812 -1.794
-0.124 -0.808 -1.817
-0.144 -0.810 -1.898
-0.066 -0.812 -1.796
-0.109 -0.811 -1.818
-0.078 -0.813 -1.822
-0.120 -0.809 -1.845
-0.089 -0.814 -1.769
-0.180 -0.810 -1.895
-0.116 -0.811 -1.874
-0.057 -0.813 -1.772
-0.150 -0.811 -1.870
-0.074 -0.817 -1.849
-0.103 -0.810 -1.930
-0.027 -0.808 -1.825
-0.140 -0.810 -1.932
-0.111 -0.813 -1.903
-0.123 -0.812 -1.930
-0.099 -0.811 -1.877
-0.025 -0.813 -1.773
-0.040 -0.811 -1.774
-0.065 -0.812 -1.876
-0.093 -0.810 -1.903
-0.034 -0.811 -1.798
-0.061 -0.811 -1.825
-0.039 -0.815 -1.849
-0.045 -0.814 -1.823
-0.017 -0.811 -1.797
-0.082 -0.811 -1.877
-0.076 -0.812 -1.901
-0.002 -0.810 -1.798
-0.088 -0.811 -1.851
-0.055 -0.810 -1.852
-0.050 -0.812 -1.797
-0.009 -0.809 -1.776
-0.086 -0.811 -1.927
-0.048 -0.811 -1.877
-0.061 -0.808 -1.959
0.028 -0.814 -1.803
-0.022 -0.811 -1.850
-0.034 -0.810 -1.933
-0.024 -0.809 -1.905
0.035 -0.811 -1.829
0.009 -0.814 -1.854
-0.031 -0.811 -1.876
0.001 -0.813 -1.879
0.005 -0.808 -1.826
-0.052 -0.811 -1.930
-0.067 -0.807 -1.929
-0.058 -0.809 -1.904
-0.005 -0.813 -1.851
-0.008 -0.811 -1.904
-0.015 -0.810 -1.878
0.019 -0.814 -1.828
-0.046 -0.810 -1.962
0.044 -0.812 -1.804
-0.011 -0.812 -1.823
-0.042 -0.813 -1.902
0.013 -0.812 -1.801
-0.018 -0.811 -1.931
0.016 -0.813 -1.933
-0.028 -0.811 -1.962
0.009 -0.810 -1.905
0.067 -0.812 -1.881
0.042 -0.810 -1.906
0.007 -0.810 -1.962
0.000 -0.808 -1.933
-0.003 -0.810 -1.992
0.043 -0.808 -1.854
0.060 -0.813 -1.804
0.052 -0.812 -1.826
0.075 -0.807 -1.855
0.023 -0.812 -1.965
0.034 -0.811 -1.879
0.068 -0.807 -1.828
0.026 -0.812 -1.905
0.051 -0.810 -1.879
0.026 -0.816 -1.854
0.060 -0.813 -1.852
0.017 -0.811 -1.880
-0.010 -0.810 -1.962
0.026 -0.812 -1.905
0.033 -0.809 -1.935
0.084 -0.811 -1.828
0.044 -0.816 -2.003
0.096 -0.816 -1.888
0.080 -0.813 -1.941
0.105 -0.813 -1.914
0.013 -0.812 -1.996
0.097 -0.812 -1.833
0.073 -0.815 -1.912
0.104 -0.814 -1.862
0.112 -0.815 -1.888
0.055 -0.816 -1.970
0.038 -0.812 -1.968
0.049 -0.812 -1.937
0.089 -0.815 -1.914
0.120 -0.816 -1.862
0.064 -0.815 -1.940
0.058 -0.812 -1.908
0.028 -0.816 -2.000
0.081 -0.814 -1.885
0.063 -0.816 -2.001
0.072 -0.815 -1.970
0.112 -0.815 -1.835
0.090 -0.816 -1.858
0.165 -0.814 -1.865
0.136 -0.813 -1.915
0.144 -0.815 -1.889
0.080 -0.809 -1.999
0.089 -0.814 -1.970
0.121 -0.812 -1.971
0.159 -0.815 -1.890
0.114 -0.814 -1.941
0.135 -0.815 -1.863
0.105 -0.812 -1.971
0.090 -0.810 -2.025
0.130 -0.813 -1.942
0.174 -0.814 -1.891
0.098 -0.815 -1.998
0.121 -0.815 -1.914
0.114 -0.813 -2.000
0.107 -0.812 -2.027
0.146 -0.814 -1.942
0.138 -0.813 -1.970
0.181 -0.818 -1.867
0.097 -0.813 -1.941
0.128 -0.815 -1.888
0.151 -0.813 -1.863
0.153 -0.814 -1.916
0.179 -0.814 -2.003
0.204 -0.816 -1.895
0.154 -0.812 -2.032
0.198 -0.816 -1.920
0.186 -0.814 -1.974
0.147 -0.813 -2.001
0.183 -0.815 -1.918
0.178 -0.817 -1.945
0.189 -0.815 -1.894
0.173 -0.816 -2.034
0.168 -0.813 -1.917
0.214 -0.818 -1.921
0.170 -0.814 -1.973
0.220 -0.817 -1.896
0.164 -0.815 -2.002
0.140 -0.813 -2.029
0.192 -0.815 -1.946
0.153 -0.812 -1.972
0.131 -0.814 -1.999
0.123 -0.811 -2.028
0.161 -0.813 -1.943
0.247 -0.813 -1.978
0.187 -0.813 -2.034
0.165 -0.815 -2.066
0.208 -0.817 -1.948
0.199 -0.814 -2.064
0.234 -0.817 -1.898
0.228 -0.818 -2.008
0.221 -0.814 -2.035
0.182 -0.814 -2.066
0.239 -0.817 -1.950
0.195 -0.816 -2.005
0.222 -0.815 -1.950
0.229 -0.816 -1.923
0.233 -0.817 -1.979
0.218 -0.820 -1.980
0.217 -0.814 -2.064
0.201 -0.816 -1.977
0.254 -0.816 -1.950
0.260 -0.818 -1.925
0.211 -0.817 -2.008
0.249 -0.817 -1.899
0.245 -0.818 -1.923
0.205 -0.814 -2.034
0.279 -0.817 -1.981
0.261 -0.818 -2.099
0.247 -0.814 -2.064
0.283 -0.815 -2.039
0.253 -0.814 -2.035
0.291 -0.820 -2.012
0.273 -0.815 -2.010
0.300 -0.818 -1.953
0.228 -0.818 -2.097
0.283 -0.815 -1.953
0.270 -0.819 -1.952
0.263 -0.815 -2.065
0.261 -0.819 -2.009
0.243 -0.816 -2.008
0.238 -0.815 -2.034
0.275 -0.819 -1.927
0.293 -0.816 -1.982
0.270 -0.817 -2.037
0.318 -0.819 -1.930
0.313 -0.817 -1.955
0.289 -0.818 -1.928
0.304 -0.819 -1.929
0.241 -0.815 -2.098
0.264 -0.817 -1.979
0.295 -0.817 -2.070
0.327 -0.819 -2.072
0.359 -0.821 -1.960
0.310 -0.819 -1.983
0.314 -0.816 -2.041
0.330 -0.820 -1.957
0.303 -0.819 -2.135
0.304 -0.818 -2.013
0.304 -0.815 -2.103
0.334 -0.815 -2.011
0.292 -0.819 -2.102
0.355 -0.820 -1.987
0.340 -0.818 -1.984
0.323 -0.821 -2.012
0.331 -0.816 -2.040
0.343 -0.819 -1.959
0.301 -0.819 -2.042
0.323 -0.815 -1.983
0.279 -0.815 -2.068
0.273 -0.815 -2.100
0.312 -0.818 -2.072
0.357 -0.818 -2.074
0.355 -0.820 -2.105
0.397 -0.818 -1.989
0.369 -0.818 -2.133
0.369 -0.820 -1.988
0.345 -0.815 -2.040
0.337 -0.818 -2.105
0.336 -0.819 -2.135
0.367 -0.819 -2.015
0.377 -0.819 -2.045
0.395 -0.819 -2.017
0.380 -0.818 -2.015
0.384 -0.819 -1.988
0.323 -0.818 -2.104
0.362 -0.818 -2.043
0.315 -0.815 -2.134
0.352 -0.818 -2.012
0.375 -0.821 -2.077
0.367 -0.817 -2.103
0.348 -0.815 -2.134
0.344 -0.819 -2.073
0.371 -0.819 -1.961
0.400 -0.816 -2.133
0.380 -0.818 -2.168
0.406 -0.820 -2.048
0.422 -0.822 -2.107
0.429 -0.821 -1.991
0.387 -0.819 -2.104
0.423 -0.819 -2.020
0.388 -0.819 -2.076
0.419 -0.820 -2.077
0.424 -0.822 -2.049
0.435 -0.819 -2.048
0.409 -0.812 -2.161
0.405 -0.820 -2.076
0.379 -0.813 -2.132
0.413 -0.823 -2.020
0.413 -0.815 -2.134
0.442 -0.823 -2.022
0.395 -0.815 -2.165
0.394 -0.821 -2.047
0.443 -0.822 -1.993
0.415 -0.822 -1.991
0.400 -0.817 -2.103
0.436 -0.821 -2.078
0.450 -0.821 -2.108
0.481 -0.822 -2.109
0.444 -0.818 -2.169
0.480 -0.822 -2.081
0.434 -0.820 -2.137
0.455 -0.822 -2.023
0.450 -0.821 -2.078
0.465 -0.820 -2.050
0.440 -0.817 -2.200
0.465 -0.821 -2.138
0.483 -0.822 -2.024
0.470 -0.823 -2.023
0.454 -0.818 -2.203
0.474 -0.818 -2.137
0.460 -0.818 -2.107
0.500 -0.826 -2.026
0.466 -0.822 -2.079
0.443 -0.817 -2.138
0.428 -0.818 -2.106
0.457 -0.818 -2.169
0.427 -0.816 -2.164
0.453 -0.822 -2.050
0.483 -0.824 -2.052
0.506 -0.821 -2.206
0.525 -0.823 -2.143
0.506 -0.821 -2.172
0.475 -0.821 -2.204
0.513 -0.825 -2.112
0.494 -0.822 -2.139
0.490 -0.820 -2.170
0.476 -0.820 -2.170
0.495 -0.823 -2.054
0.484 -0.817 -2.203
0.524 -0.822 -2.053
0.525 -0.822 -2.083
0.508 -0.822 -2.082
0.519 -0.820 -2.173
0.542 -0.824 -2.054
0.504 -0.820 -2.140
0.521 -0.821 -2.112
0.537 -0.822 -2.081
0.513 -0.824 -2.054
0.496 -0.823 -2.083
0.491 -0.820 -2.109
0.546 -0.820 -2.241
0.514 -0.820 -2.241
0.534 -0.822 -2.207
0.554 -0.824 -2.146
0.568 -0.824 -2.179
0.542 -0.824 -2.112
0.553 -0.822 -2.054
0.566 -0.824 -2.210
0.573 -0.826 -2.115
0.582 -0.824 -2.085
0.537 -0.823 -2.176
0.553 -0.822 -2.082
0.564 -0.822 -2.145
0.554 -0.826 -2.179
0.537 -0.823 -2.243
0.533 -0.820 -2.143
0.516 -0.819 -2.206
0.547 -0.821 -2.208
0.570 -0.825 -2.056
0.566 -0.822 -2.083
0.580 -0.822 -2.113
0.548 -0.819 -2.111
0.610 -0.824 -2.247
0.633 -0.829 -2.118
0.598 -0.825 -2.210
0.593 -0.820 -2.174
0.611 -0.824 -2.086
0.602 -0.826 -2.282
0.582 -0.822 -2.143
0.614 -0.824 -2.146
0.609 -0.824 -2.211
0.579 -0.823 -2.244
0.579 -0.822 -2.175
0.590 -0.822 -2.244
0.606 -0.821 -2.175
0.608 -0.822 -2.114
0.579 -0.822 -2.209
0.624 -0.825 -2.087
0.566 -0.824 -2.243
0.599 -0.824 -2.114
0.595 -0.824 -2.085
0.612 -0.817 -2.142
0.595 -0.821 -2.142
0.671 -0.826 -2.148
0.659 -0.825 -2.280
0.623 -0.822 -2.278
0.655 -0.825 -2.117
0.638 -0.823 -2.177
0.628 -0.826 -2.213
0.652 -0.822 -2.313
0.641 -0.824 -2.146
0.669 -0.824 -2.178
0.639 -0.822 -2.276
0.640 -0.824 -2.245
0.660 -0.827 -2.247
0.657 -0.826 -2.213
0.613 -0.826 -2.281
0.637 -0.823 -2.211
0.636 -0.829 -2.180
0.654 -0.824 -2.147
0.628 -0.826 -2.247
0.646 -0.828 -2.119
0.660 -0.827 -2.180
0.666 -0.824 -2.117
0.690 -0.827 -2.215
0.694 -0.831 -2.290
0.685 -0.826 -2.318
0.697 -0.823 -2.211
0.703 -0.827 -2.149
0.673 -0.826 -2.317
0.710 -0.821 -2.207
0.710 -0.834 -2.293
0.694 -0.824 -2.118
0.671 -0.826 -2.248
0.708 -0.831 -2.255
0.709 -0.823 -2.146
0.699 -0.823 -2.177
0.684 -0.826 -2.119
0.671 -0.826 -2.282
0.682 -0.823 -2.178
0.687 -0.828 -2.253
0.684 -0.825 -2.148
0.710 -0.821 -2.174
0.710 -0.831 -2.324
0.669 -0.824 -2.212
0.745 -0.824 -2.313
0.730 -0.827 -2.247
0.739 -0.827 -2.355
0.733 -0.828 -2.283
0.721 -0.828 -2.250
0.753 -0.824 -2.210
0.757 -0.826 -2.180
0.761 -0.826 -2.279
0.727 -0.824 -2.176
0.764 -0.827 -2.247
0.738 -0.825 -2.149
0.711 -0.826 -2.318
0.748 -0.828 -2.213
0.740 -0.824 -2.178
0.749 -0.827 -2.281
0.760 -0.829 -2.152
0.721 -0.831 -2.288
0.729 -0.827 -2.149
0.753 -0.828 -2.353
0.728 -0.824 -2.209
0.745 -0.831 -2.321
0.750 -0.828 -2.249
0.805 -0.829 -2.215
0.789 -0.829 -2.182
0.769 -0.827 -2.353
0.779 -0.829 -2.214
0.791 -0.828 -2.282
0.803 -0.830 -2.356
0.790 -0.828 -2.247
0.804 -0.827 -2.317
0.777 -0.828 -2.316
0.810 -0.827 -2.181
0.805 -0.833 -2.322
0.812 -0.831 -2.250
0.769 -0.828 -2.316
0.780 -0.828 -2.283
0.770 -0.826 -2.181
0.777 -0.828 -2.247
0.777 -0.826 -2.351
0.785 -0.827 -2.214
0.808 -0.829 -2.283
0.797 -0.826 -2.181
0.833 -0.829 -2.215
0.820 -0.829 -2.250
0.815 -0.827 -2.390
0.836 -0.832 -2.358
0.848 -0.826 -2.278
0.838 -0.831 -2.250
0.825 -0.830 -2.320
0.834 -0.827 -2.316
0.839 -0.828 -2.351
0.847 -0.828 -2.245
0.826 -0.831 -2.285
0.813 -0.829 -2.356
0.813 -0.827 -2.214
0.857 -0.828 -2.351
0.847 -0.828 -2.387
0.841 -0.831 -2.285
0.829 -0.829 -2.184
0.839 -0.826 -2.212
0.833 -0.827 -2.388
0.860 -0.830 -2.316
0.858 -0.828 -2.213
0.894 -0.831 -2.352
0.869 -0.830 -2.247
0.881 -0.828 -2.424
0.872 -0.829 -2.314
0.895 -0.831 -2.389
0.904 -0.829 -2.385
0.899 -0.832 -2.248
0.899 -0.828 -2.348
0.869 -0.830 -2.390
0.890 -0.825 -2.310
0.866 -0.827 -2.278
0.870 -0.828 -2.350
0.888 -0.830 -2.313
0.894 -0.828 -2.278
0.900 -0.827 -2.245
0.865 -0.825 -2.211
0.880 -0.827 -2.277
0.889 -0.831 -2.215
0.897 -0.829 -2.425
0.869 -0.825 -2.243
0.878 -0.830 -2.389
0.947 -0.827 -2.379
0.953 -0.830 -2.423
0.938 -0.831 -2.281
0.935 -0.831 -2.350
0.919 -0.831 -2.426
0.927 -0.829 -2.422
0.908 -0.830 -2.280
0.921 -0.829 -2.313
0.923 -0.830 -2.386
0.951 -0.832 -2.249
0.926 -0.832 -2.354
0.919 -0.830 -2.246
0.946 -0.831 -2.316
0.939 -0.829 -2.384
0.925 -0.830 -2.281
0.930 -0.829 -2.246
0.953 -0.826 -2.416
0.959 -0.833 -2.283
0.952 -0.831 -2.349
0.914 -0.830 -2.316
0.971 -0.834 -2.353
0.984 -0.831 -2.460
0.985 -0.833 -2.389
0.990 -0.828 -2.455
0.985 -0.834 -2.354
0.992 -0.830 -2.278
0.988 -0.832 -2.352
1.009 -0.833 -2.425
0.964 -0.828 -2.459
0.949 -0.828 -2.312
0.959 -0.829 -2.278
0.979 -0.830 -2.420
0.978 -0.834 -2.317
1.008 -0.836 -2.319
0.969 -0.830 -2.384
1.002 -0.835 -2.391
0.959 -0.830 -2.247
0.987 -0.831 -2.421
0.987 -0.834 -2.282
0.983 -0.831 -2.316
1.038 -0.834 -2.426
1.030 -0.832 -2.314
1.021 -0.827 -2.491
1.016 -0.831 -2.460
1.016 -0.838 -2.358
1.015 -0.835 -2.391
1.040 -0.832 -2.457
1.012 -0.832 -2.421
1.027 -0.831 -2.459
1.017 -0.834 -2.352
1.002 -0.829 -2.277
1.046 -0.835 -2.425
1.033 -0.836 -2.392
1.031 -0.836 -2.283
1.048 -0.830 -2.495
1.049 -0.838 -2.356
1.049 -0.835 -2.389
1.008 -0.831 -2.314
1.057 -0.834 -2.461
1.040 -0.832 -2.312
-0.547 -0.815 -1.397
-0.591 -0.811 -1.455
-0.613 -0.814 -1.497
-0.556 -0.811 -1.458
-0.558 -0.812 -1.436
-0.557 -0.813 -1.419
-0.514 -0.815 -1.401
-0.593 -0.813 -1.476
-0.645 -0.812 -1.488
-0.510 -0.811 -1.423
-0.525 -0.812 -1.421
-0.543 -0.813 -1.419
-0.624 -0.820 -1.470
-0.624 -0.813 -1.478
-0.528 -0.813 -1.401
-0.633 -0.816 -1.492
-0.575 -0.812 -1.432
-0.570 -0.809 -1.479
-0.549 -0.816 -1.435
-0.493 -0.812 -1.407
-0.573 -0.811 -1.455
-0.525 -0.812 -1.480
-0.617 -0.815 -1.512
-0.486 -0.816 -1.406
-0.489 -0.810 -1.446
-0.482 -0.814 -1.427
-0.574 -0.811 -1.498
-0.521 -0.809 -1.462
-0.565 -0.816 -1.474
-0.562 -0.814 -1.496
-0.591 -0.812 -1.497
-0.522 -0.809 -1.443
-0.537 -0.809 -1.502
-0.575 -0.810 -1.518
-0.551 -0.807 -1.522
-0.509 -0.812 -1.461
-0.483 -0.816 -1.444
-0.543 -0.812 -1.479
-0.545 -0.814 -1.457
-0.514 -0.814 -1.438
-0.591 -0.811 -1.517
-0.466 -0.814 -1.411
-0.496 -0.813 -1.425
-0.464 -0.813 -1.430
-0.522 -0.809 -1.525
-0.493 -0.813 -1.507
-0.491 -0.811 -1.466
-0.511 -0.814 -1.524
-0.526 -0.813 -1.501
-0.447 -0.812 -1.474
-0.430 -0.813 -1.455
-0.461 -0.814 -1.493
-0.539 -0.809 -1.521
-0.484 -0.817 -1.465
-0.463 -0.814 -1.472
-0.451 -0.815 -1.431
-0.461 -0.812 -1.452
-0.491 -0.812 -1.488
-0.508 -0.811 -1.484
-0.539 -0.810 -1.543
-0.419 -0.814 -1.435
-0.525 -0.812 -1.544
-0.401 -0.812 -1.439
-0.480 -0.814 -1.488
-0.452 -0.817 -1.450
-0.503 -0.808 -1.508
-0.430 -0.811 -1.437
-0.490 -0.811 -1.529
-0.429 -0.812 -1.476
-0.387 -0.814 -1.458
-0.424 -0.809 -1.496
-0.417 -0.813 -1.455
-0.506 -0.811 -1.548
-0.458 -0.811 -1.512
-0.469 -0.809 -1.555
-0.430 -0.814 -1.512
-0.496 -0.814 -1.548
-0.476 -0.813 -1.510
-0.477 -0.814 -1.529
-0.417 -0.814 -1.474
-0.402 -0.814 -1.456
-0.460 -0.824 -1.484
-0.368 -0.812 -1.463
-0.442 -0.811 -1.512
-0.395 -0.809 -1.479
-0.414 -0.813 -1.493
-0.391 -0.810 -1.539
-0.438 -0.810 -1.556
-0.367 -0.814 -1.502
-0.433 -0.807 -1.578
-0.394 -0.812 -1.518
-0.385 -0.814 -1.478
-0.358 -0.817 -1.482
-0.425 -0.812 -1.538
-0.458 -0.802 -1.579
-0.404 -0.809 -1.558
-0.398 -0.813 -1.496
-0.355 -0.814 -1.463
-0.382 -0.813 -1.499
-0.376 -0.810 -1.521
-0.367 -0.812 -1.483
-0.455 -0.811 -1.572
-0.412 -0.814 -1.536
-0.338 -0.812 -1.467
-0.337 -0.813 -1.488
-0.427 -0.814 -1.555
-0.454 -0.810 -1.553
-0.445 -0.815 -1.532
-0.407 -0.810 -1.519
-0.370 -0.808 -1.561
-0.322 -0.815 -1.506
-0.333 -0.813 -1.524
-0.326 -0.816 -1.486
-0.358 -0.809 -1.541
-0.367 -0.807 -1.584
-0.398 -0.806 -1.579
-0.389 -0.809 -1.557
-0.334 -0.812 -1.506
-0.407 -0.813 -1.599
-0.375 -0.810 -1.538
-0.357 -0.810 -1.561
-0.296 -0.816 -1.488
-0.303 -0.812 -1.510
-0.306 -0.812 -1.491
-0.316 -0.811 -1.528
-0.364 -0.813 -1.520
-0.344 -0.809 -1.525
-0.390 -0.812 -1.578
-0.346 -0.813 -1.541
-0.421 -0.810 -1.573
-0.353 -0.815 -1.503
-0.338 -0.811 -1.589
-0.297 -0.811 -1.551
-0.327 -0.810 -1.547
-0.302 -0.813 -1.528
-0.340 -0.812 -1.607
-0.260 -0.813 -1.513
-0.273 -0.815 -1.531
-0.290 -0.813 -1.510
-0.327 -0.811 -1.568
-0.372 -0.812 -1.604
-0.385 -0.809 -1.605
-0.275 -0.810 -1.494
-0.327 -0.814 -1.587
-0.315 -0.813 -1.546
-0.357 -0.812 -1.583
-0.343 -0.812 -1.564
-0.273 -0.812 -1.512
-0.312 -0.813 -1.570
-0.351 -0.808 -1.610
-0.286 -0.813 -1.530
-0.286 -0.815 -1.551
-0.334 -0.810 -1.631
-0.301 -0.810 -1.635
-0.239 -0.814 -1.556
-0.266 -0.814 -1.573
-0.230 -0.814 -1.518
-0.305 -0.811 -1.609
-0.262 -0.813 -1.593
-0.212 -0.814 -1.538
-0.243 -0.815 -1.533
-0.250 -0.813 -1.576
-0.319 -0.811 -1.632
-0.265 -0.809 -1.555
-0.215 -0.814 -1.519
-0.280 -0.812 -1.573
-0.298 -0.814 -1.570
-0.274 -0.809 -1.594
-0.222 -0.808 -1.540
-0.305 -0.808 -1.591
-0.316 -0.807 -1.611
-0.293 -0.812 -1.590
-0.253 -0.813 -1.554
-0.285 -0.807 -1.615
-0.246 -0.814 -1.516
-0.254 -0.810 -1.536
-0.232 -0.814 -1.598
-0.265 -0.809 -1.660
-0.244 -0.811 -1.598
-0.235 -0.813 -1.576
-0.195 -0.811 -1.542
-0.246 -0.816 -1.616
-0.168 -0.813 -1.544
-0.270 -0.811 -1.638
-0.208 -0.813 -1.560
-0.226 -0.811 -1.622
-0.184 -0.820 -1.563
-0.185 -0.816 -1.542
-0.206 -0.815 -1.584
-0.276 -0.814 -1.611
-0.221 -0.816 -1.578
-0.197 -0.817 -1.563
-0.257 -0.811 -1.617
-0.214 -0.811 -1.604
-0.286 -0.811 -1.636
-0.226 -0.816 -1.556
-0.255 -0.812 -1.640
-0.231 -0.808 -1.663
-0.206 -0.811 -1.642
-0.169 -0.812 -1.605
-0.239 -0.812 -1.640
-0.203 -0.816 -1.603
-0.175 -0.815 -1.585
-0.214 -0.816 -1.620
-0.201 -0.810 -1.667
-0.181 -0.813 -1.622
-0.147 -0.812 -1.565
-0.191 -0.812 -1.644
-0.159 -0.813 -1.586
-0.220 -0.812 -1.662
-0.251 -0.811 -1.659
-0.193 -0.818 -1.585
-0.136 -0.816 -1.567
-0.221 -0.810 -1.642
-0.146 -0.816 -1.586
-0.194 -0.811 -1.624
-0.185 -0.814 -1.605
-0.164 -0.815 -1.562
-0.153 -0.810 -1.608
-0.200 -0.813 -1.689
-0.112 -0.816 -1.610
-0.212 -0.809 -1.689
-0.176 -0.813 -1.646
-0.115 -0.814 -1.590
-0.146 -0.813 -1.651
-0.171 -0.811 -1.671
-0.136 -0.814 -1.632
-0.168 -0.813 -1.693
-0.143 -0.818 -1.607
-0.163 -0.810 -1.626
-0.182 -0.811 -1.693
-0.124 -0.812 -1.613
-0.160 -0.812 -1.649
-0.158 -0.815 -1.669
-0.130 -0.815 -1.589
-0.124 -0.818 -1.631
-0.119 -0.812 -1.571
-0.091 -0.813 -1.572
-0.099 -0.812 -1.591
-0.190 -0.815 -1.666
-0.152 -0.815 -1.627
-0.107 -0.816 -1.570
-0.101 -0.814 -1.655
-0.053 -0.817 -1.617
-0.137 -0.814 -1.696
-0.116 -0.814 -1.654
-0.140 -0.811 -1.674
-0.132 -0.814 -1.719
-0.084 -0.812 -1.591
-0.076 -0.814 -1.637
-0.106 -0.814 -1.634
-0.081 -0.814 -1.612
-0.109 -0.811 -1.676
-0.095 -0.814 -1.675
-0.071 -0.815 -1.592
-0.043 -0.815 -1.598
-0.092 -0.816 -1.633
-0.058 -0.816 -1.595
-0.152 -0.812 -1.696
-0.130 -0.813 -1.653
-0.093 -0.809 -1.613
-0.066 -0.812 -1.617
-0.127 -0.815 -1.673
-0.121 -0.813 -1.697
-0.086 -0.814 -1.657
-0.098 -0.811 -1.720
-0.104 -0.812 -1.696
-0.079 -0.812 -1.677
-0.074 -0.814 -1.698
-0.071 -0.815 -1.657
-0.042 -0.816 -1.661
-0.017 -0.813 -1.643
-0.065 -0.813 -1.678
-0.046 -0.813 -1.640
-0.025 -0.819 -1.619
-0.064 -0.820 -1.636
-0.049 -0.813 -1.681
-0.056 -0.815 -1.659
-0.088 -0.811 -1.698
-0.038 -0.814 -1.620
-0.083 -0.811 -1.722
-0.033 -0.817 -1.639
-0.058 -0.812 -1.701
-0.115 -0.814 -1.719
-0.030 -0.816 -1.600
-0.010 -0.815 -1.624
-0.036 -0.817 -1.681
-0.044 -0.814 -1.703
0.002 -0.822 -1.625
-0.006 -0.817 -1.684
-0.014 -0.816 -1.705
-0.039 -0.815 -1.727
0.017 -0.815 -1.667
-0.068 -0.813 -1.723
-0.064 -0.815 -1.747
-0.078 -0.811 -1.747
0.011 -0.814 -1.646
-0.032 -0.814 -1.750
-0.012 -0.815 -1.663
-0.004 -0.817 -1.644
-0.047 -0.812 -1.750
0.032 -0.819 -1.626
0.003 -0.815 -1.664
-0.022 -0.813 -1.729
0.025 -0.818 -1.645
-0.053 -0.812 -1.727
-0.020 -0.813 -1.685
0.009 -0.815 -1.688
-0.028 -0.812 -1.706
-0.027 -0.815 -1.662
0.018 -0.815 -1.629
0.053 -0.816 -1.688
-0.002 -0.816 -1.753
0.021 -0.817 -1.733
0.046 -0.815 -1.711
0.068 -0.816 -1.650
0.015 -0.816 -1.710
0.039 -0.816 -1.647
0.023 -0.820 -1.687
0.014 -0.813 -1.756
-0.008 -0.814 -1.730
0.031 -0.813 -1.711
0.046 -0.815 -1.668
0.039 -0.812 -1.689
0.006 -0.813 -1.775
0.081 -0.821 -1.649
0.001 -0.811 -1.710
-0.016 -0.812 -1.752
0.031 -0.816 -1.668
0.007 -0.816 -1.731
0.053 -0.817 -1.648
0.061 -0.815 -1.669
0.081 -0.813 -1.738
0.089 -0.814 -1.716
0.081 -0.818 -1.693
0.111 -0.816 -1.693
0.052 -0.815 -1.735
0.022 -0.811 -1.779
0.103 -0.816 -1.675
0.074 -0.817 -1.715
0.029 -0.816 -1.755
0.075 -0.815 -1.671
0.059 -0.816 -1.759
0.051 -0.813 -1.781
0.074 -0.815 -1.761
0.059 -0.815 -1.714
0.044 -0.812 -1.758
0.117 -0.818 -1.674
0.089 -0.814 -1.673
0.037 -0.817 -1.733
0.067 -0.814 -1.692
0.036 -0.815 -1.779
0.066 -0.818 -1.736
0.096 -0.815 -1.695
0.112 -0.810 -1.737
0.089 -0.814 -1.760
0.119 -0.817 -1.762
0.132 -0.812 -1.674
0.097 -0.812 -1.783
0.145 -0.816 -1.722
0.139 -0.818 -1.696
0.119 -0.811 -1.715
0.067 -0.814 -1.782
0.152 -0.816 -1.701
0.075 -0.811 -1.804
0.105 -0.814 -1.714
0.146 -0.815 -1.676
0.090 -0.812 -1.805
0.082 -0.812 -1.783
0.133 -0.818 -1.717
0.126 -0.816 -1.739
0.105 -0.811 -1.760
0.112 -0.813 -1.786
0.097 -0.815 -1.736
0.125 -0.811 -1.695
0.105 -0.814 -1.808
0.147 -0.816 -1.766
0.174 -0.814 -1.723
0.176 -0.819 -1.770
0.126 -0.816 -1.788
0.127 -0.814 -1.837
0.139 -0.817 -1.743
0.194 -0.817 -1.702
0.155 -0.817 -1.792
0.119 -0.815 -1.811
0.154 -0.814 -1.744
0.166 -0.817 -1.701
0.134 -0.816 -1.813
0.143 -0.818 -1.837
0.140 -0.815 -1.790
0.207 -0.816 -1.706
0.160 -0.818 -1.721
0.180 -0.812 -1.702
0.161 -0.816 -1.769
0.168 -0.818 -1.745
0.133 -0.814 -1.765
0.148 -0.817 -1.815
0.181 -0.816 -1.748
0.189 -0.818 -1.724
0.186 -0.814 -1.843
0.192 -0.817 -1.819
0.184 -0.819 -1.795
0.213 -0.820 -1.797
0.201 -0.815 -1.727
0.204 -0.819 -1.773
0.163 -0.818 -1.817
0.224 -0.818 -1.751
0.157 -0.815 -1.839
0.237 -0.814 -1.751
0.228 -0.815 -1.730
0.218 -0.816 -1.774
0.177 -0.817 -1.818
0.215 -0.818 -1.728
0.169 -0.816 -1.794
0.210 -0.821 -1.750
0.207 -0.818 -1.820
0.243 -0.819 -1.730
0.196 -0.819 -1.749
0.172 -0.818 -1.841
0.189 -0.818 -1.772
0.197 -0.816 -1.797
0.250 -0.817 -1.823
0.224 -0.814 -1.870
0.261 -0.818 -1.777
0.245 -0.816 -1.846
0.233 -0.819 -1.773
0.241 -0.818 -1.798
0.237 -0.819 -1.821
0.279 -0.820 -1.757
0.266 -0.820 -1.755
0.195 -0.815 -1.869
0.255 -0.815 -1.732
0.202 -0.820 -1.843
0.232 -0.817 -1.844
0.255 -0.817 -1.800
0.211 -0.819 -1.869
0.216 -0.814 -1.844
0.221 -0.816 -1.820
0.270 -0.819 -1.734
0.226 -0.816 -1.798
0.273 -0.816 -1.778
0.246 -0.816 -1.775
0.252 -0.817 -1.753
0.253 -0.817 -1.874
0.298 -0.820 -1.804
0.292 -0.819 -1.758
0.288 -0.819 -1.780
0.272 -0.816 -1.851
0.270 -0.818 -1.800
0.281 -0.816 -1.877
0.315 -0.819 -1.782
0.279 -0.819 -1.902
0.311 -0.818 -1.805
0.282 -0.816 -1.802
0.306 -0.818 -1.828
0.270 -0.822 -1.876
0.263 -0.817 -1.900
0.301 -0.818 -1.781
0.265 -0.818 -1.824
0.241 -0.819 -1.871
0.261 -0.820 -1.848
0.278 -0.818 -1.826
0.289 -0.821 -1.851
0.307 -0.822 -1.759
0.293 -0.820 -1.828
0.319 -0.818 -1.760
0.331 -0.818 -1.853
0.322 -0.820 -1.906
0.293 -0.819 -1.904
0.353 -0.823 -1.810
0.370 -0.823 -1.788
0.308 -0.821 -1.905
0.312 -0.820 -1.879
0.335 -0.819 -1.830
0.327 -0.821 -1.880
0.343 -0.821 -1.785
0.354 -0.819 -1.787
0.302 -0.819 -1.852
0.325 -0.819 -1.806
0.317 -0.819 -1.852
0.349 -0.821 -1.832
0.345 -0.819 -1.854
0.322 -0.819 -1.828
0.299 -0.821 -1.878
0.328 -0.818 -1.784
0.338 -0.820 -1.808
0.380 -0.821 -1.909
0.368 -0.818 -1.881
0.407 -0.822 -1.814
0.351 -0.819 -1.906
0.381 -0.823 -1.812
0.340 -0.819 -1.880
0.359 -0.819 -1.856
0.347 -0.820 -1.933
0.364 -0.821 -1.933
0.355 -0.819 -1.880
0.384 -0.817 -1.858
0.366 -0.819 -1.906
0.389 -0.820 -1.835
0.386 -0.824 -1.883
0.374 -0.821 -1.857
0.337 -0.821 -1.907
0.390 -0.818 -1.813
0.377 -0.821 -1.834
0.362 -0.820 -1.833
0.364 -0.819 -1.811
0.333 -0.821 -1.932
0.381 -0.819 -1.789
0.388 -0.821 -1.962
0.408 -0.821 -1.911
0.405 -0.820 -1.936
0.441 -0.821 -1.863
0.412 -0.818 -1.861
0.435 -0.826 -1.817
0.422 -0.819 -1.887
0.396 -0.820 -1.885
0.422 -0.822 -1.912
0.413 -0.823 -1.886
0.430 -0.822 -1.838
0.444 -0.821 -1.819
0.442 -0.821 -1.840
0.378 -0.821 -1.934
0.392 -0.823 -1.935
0.405 -0.822 -1.836
0.402 -0.820 -1.962
0.402 -0.822 -1.859
0.422 -0.824 -1.937
0.417 -0.820 -1.816
0.428 -0.822 -1.861
0.394 -0.821 -1.911
0.415 -0.820 -1.837
0.450 -0.822 -1.913
0.446 -0.821 -1.964
0.461 -0.821 -1.940
0.466 -0.821 -1.867
0.451 -0.821 -1.890
0.416 -0.820 -1.963
0.436 -0.822 -1.912
0.457 -0.822 -1.995
0.434 -0.821 -1.938
0.477 -0.822 -1.893
0.483 -0.823 -1.844
0.476 -0.824 -1.917
0.470 -0.823 -1.843
0.457 -0.822 -1.842
0.483 -0.826 -1.868
0.439 -0.822 -1.888
0.430 -0.819 -1.963
0.464 -0.824 -1.916
0.468 -0.825 -1.892
0.457 -0.825 -1.865
0.458 -0.821 -1.966
0.448 -0.821 -1.938
0.499 -0.822 -1.997
0.503 -0.824 -1.970
0.474 -0.823 -1.968
0.484 -0.821 -1.996
0.492 -0.821 -1.869
0.505 -0.824 -1.919
0.520 -0.823 -1.870
0.491 -0.824 -1.944
0.505 -0.823 -1.895
0.477 -0.824 -1.943
0.503 -0.824 -1.944
0.472 -0.823 -1.996
0.495 -0.827 -1.895
0.521 -0.825 -1.895
0.490 -0.823 -1.919
0.517 -0.823 -1.945
0.495 -0.822 -1.844
0.486 -0.822 -1.969
0.510 -0.826 -1.870
0.518 -0.824 -1.920
0.534 -0.823 -1.870
0.548 -0.826 -1.897
0.574 -0.826 -1.898
0.560 -0.825 -1.899
0.541 -0.823 -2.026
0.511 -0.822 -2.026
0.558 -0.824 -1.922
0.542 -0.820 -1.944
0.530 -0.824 -1.972
0.545 -0.822 -1.873
0.531 -0.823 -1.920
0.529 -0.824 -1.999
0.545 -0.824 -1.921
0.556 -0.822 -1.970
0.533 -0.823 -1.896
0.544 -0.824 -1.999
0.543 -0.822 -1.971
0.528 -0.825 -2.026
0.562 -0.827 -1.875
0.558 -0.823 -1.945
0.514 -0.822 -1.970
0.534 -0.826 -1.946
0.516 -0.825 -1.998
0.583 -0.825 -2.003
0.595 -0.824 -2.031
0.602 -0.828 -1.902
0.611 -0.827 -1.928
0.597 -0.824 -1.950
0.554 -0.822 -1.997
0.569 -0.824 -2.029
0.571 -0.824 -1.948
0.584 -0.824 -1.923
0.581 -0.824 -2.058
0.594 -0.822 -1.974
0.586 -0.828 -2.031
0.586 -0.827 -1.976
0.599 -0.826 -1.926
0.587 -0.827 -1.950
0.567 -0.821 -1.999
0.599 -0.826 -2.003
0.556 -0.824 -2.027
0.570 -0.823 -1.973
0.582 -0.821 -1.898
0.610 -0.825 -1.903
0.571 -0.824 -1.922
0.638 -0.827 -2.006
0.610 -0.824 -2.001
0.624 -0.826 -1.953
0.638 -0.826 -2.061
0.598 -0.826 -2.060
0.625 -0.826 -2.033
0.649 -0.825 -1.979
0.636 -0.826 -1.929
0.649 -0.826 -1.954
0.615 -0.828 -1.951
0.609 -0.825 -2.059
0.375 -0.825 -1.766
0.390 -0.821 -1.726
0.361 -0.819 -1.743
0.371 -0.824 -1.686
0.346 -0.819 -1.763
0.365 -0.819 -1.722
0.381 -0.821 -1.704
0.376 -0.823 -1.745
0.398 -0.828 -1.690
0.350 -0.821 -1.741
0.651 -0.827 -1.930
0.626 -0.827 -2.060
0.622 -0.823 -1.975
0.625 -0.827 -1.929
0.611 -0.823 -1.974
0.642 -0.829 -2.036
0.614 -0.828 -2.032
0.642 -0.830 -1.955
0.637 -0.826 -1.978
0.622 -0.823 -2.003
0.654 -0.828 -2.036
0.677 -0.826 -1.981
0.679 -0.827 -2.036
0.637 -0.825 -2.088
0.662 -0.827 -1.931
0.681 -0.827 -2.063
0.666 -0.824 -2.087
0.693 -0.828 -1.955
0.655 -0.821 -2.005
0.691 -0.826 -2.008
0.663 -0.824 -2.061
0.682 -0.829 -2.008
0.674 -0.832 -2.038
0.666 -0.828 -1.956
0.676 -0.827 -1.956
0.680 -0.825 -2.088
0.678 -0.829 -1.933
0.691 -0.827 -1.980
0.650 -0.827 -2.008
0.652 -0.826 -2.088
0.669 -0.829 -1.981
0.722 -0.826 -2.090
0.716 -0.827 -2.010
0.729 -0.828 -1.985
0.704 -0.827 -1.982
0.713 -0.828 -2.120
0.697 -0.827 -2.091
0.721 -0.825 -2.119
0.721 -0.828 -2.036
0.736 -0.832 -2.013
0.704 -0.826 -2.008
0.709 -0.827 -2.091
0.692 -0.827 -2.064
0.731 -0.827 -2.037
0.697 -0.830 -2.038
0.700 -0.825 -1.955
0.716 -0.824 -2.061
0.728 -0.827 -1.959
0.707 -0.828 -2.037
0.709 -0.828 -2.064
0.718 -0.829 -1.958
0.718 -0.829 -1.984
0.737 -0.826 -2.120
0.745 -0.829 -2.012
0.770 -0.829 -2.123
0.767 -0.825 -2.150
0.745 -0.824 -2.119
0.778 -0.832 -2.041
0.754 -0.828 -2.093
0.763 -0.829 -2.065
0.756 -0.829 -1.987
0.736 -0.827 -2.091
0.736 -0.828 -2.063
0.775 -0.829 -2.067
0.760 -0.829 -2.040
0.776 -0.826 -1.985
0.764 -0.828 -2.093
0.770 -0.829 -2.012
0.745 -0.826 -2.063
0.749 -0.830 -2.040
0.743 -0.828 -1.985
0.756 -0.828 -2.012
0.773 -0.832 -1.988
0.806 -0.830 -2.097
0.800 -0.829 -2.040
0.795 -0.826 -2.150
0.814 -0.830 -2.154
0.820 -0.830 -2.097
0.792 -0.831 -2.069
0.820 -0.829 -2.015
0.778 -0.827 -2.122
0.815 -0.832 -2.042
0.813 -0.829 -2.067
0.778 -0.828 -2.094
0.796 -0.827 -2.066
0.803 -0.828 -2.124
0.787 -0.830 -2.013
0.806 -0.828 -2.013
0.785 -0.828 -2.151
0.796 -0.830 -2.124
0.786 -0.829 -2.040
0.798 -0.830 -2.013
0.792 -0.830 -2.096
0.797 -0.830 -1.988
0.842 -0.829 -2.183
0.844 -0.825 -2.148
0.833 -0.830 -2.097
0.844 -0.830 -2.096
0.857 -0.833 -2.045
0.861 -0.829 -2.124
0.851 -0.829 -2.069
0.825 -0.830 -2.154
0.828 -0.826 -2.121
0.844 -0.832 -2.071
0.835 -0.830 -2.016
0.855 -0.827 -2.181
0.828 -0.832 -2.044
0.859 -0.830 -2.096
0.853 -0.832 -2.016
0.841 -0.829 -2.153
0.840 -0.832 -2.045
0.852 -0.830 -2.123
0.830 -0.834 -2.128
0.861 -0.828 -2.041
0.825 -0.829 -2.069
0.871 -0.829 -2.182
0.893 -0.824 -2.149
0.903 -0.830 -2.071
0.875 -0.828 -2.153
0.899 -0.828 -2.213
0.881 -0.832 -2.044
0.870 -0.830 -2.095
0.872 -0.832 -2.071
0.880 -0.827 -2.123
0.886 -0.829 -2.042
0.898 -0.832 -2.100
0.880 -0.831 -2.071
0.915 -0.836 -2.130
0.892 -0.827 -2.181
0.866 -0.828 -2.152
0.883 -0.833 -2.127
0.898 -0.833 -2.073
0.905 -0.833 -2.045
0.888 -0.832 -2.185
0.887 -0.831 -2.099
0.905 -0.834 -2.157
0.927 -0.830 -2.215
0.936 -0.835 -2.161
0.938 -0.831 -2.127
0.930 -0.832 -2.073
0.921 -0.831 -2.098
0.949 -0.838 -2.194
0.907 -0.828 -2.125
0.924 -0.831 -2.185
0.914 -0.830 -2.183
0.919 -0.830 -2.155
0.913 -0.832 -2.100
0.945 -0.833 -2.219
0.925 -0.834 -2.074
0.940 -0.833 -2.100
0.954 -0.836 -2.160
0.932 -0.834 -2.129
0.953 -0.834 -2.189
0.948 -0.835 -2.075
0.916 -0.829 -2.214
0.979 -0.832 -2.247
0.955 -0.826 -2.180
0.954 -0.828 -2.152
0.981 -0.835 -2.158
0.995 -0.841 -2.136
0.979 -0.828 -2.211
0.957 -0.833 -2.074
0.993 -0.833 -2.186
0.985 -0.828 -2.242
0.980 -0.832 -2.158
0.977 -0.830 -2.182
0.985 -0.834 -2.160
0.976 -0.833 -2.216
0.974 -0.833 -2.100
0.965 -0.834 -2.102
0.969 -0.833 -2.130
0.990 -0.834 -2.101
0.959 -0.833 -2.219
0.950 -0.833 -2.101
0.959 -0.833 -2.128
1.007 -0.833 -2.218
1.032 -0.841 -2.197
1.033 -0.830 -2.276
1.015 -0.834 -2.101
1.007 -0.834 -2.129
1.024 -0.835 -2.252
1.008 -0.839 -2.165
1.034 -0.837 -2.161
1.038 -0.837 -2.224
1.016 -0.837 -2.163
1.032 -0.837 -2.105
1.007 -0.833 -2.247
1.030 -0.837 -2.194
1.037 -0.836 -2.251
1.009 -0.837 -2.192
1.022 -0.834 -2.220
1.022 -0.835 -2.130
1.002 -0.834 -2.101
1.006 -0.835 -2.218
0.989 -0.833 -2.129
-0.486 -0.816 -1.353
-0.415 -0.817 -1.332
-0.449 -0.811 -1.375
-0.512 -0.813 -1.386
-0.478 -0.810 -1.374
-0.484 -0.815 -1.387
-0.416 -0.817 -1.321
-0.444 -0.818 -1.340
-0.457 -0.816 -1.355
-0.455 -0.814 -1.340
-0.466 -0.813 -1.373
-0.404 -0.821 -1.334
-0.468 -0.814 -1.357
-0.497 -0.813 -1.386
-0.430 -0.817 -1.326
-0.437 -0.814 -1.359
-0.427 -0.815 -1.344
-0.443 -0.816 -1.324
-0.502 -0.816 -1.370
-0.402 -0.808 -1.368
-0.383 -0.815 -1.341
-0.451 -0.815 -1.413
-0.384 -0.815 -1.349
-0.412 -0.817 -1.379
-0.358 -0.818 -1.345
-0.420 -0.812 -1.380
-0.425 -0.815 -1.360
-0.374 -0.819 -1.341
-0.433 -0.810 -1.377
-0.451 -0.814 -1.393
-0.463 -0.811 -1.393
-0.421 -0.813 -1.399
-0.437 -0.815 -1.396
-0.366 -0.813 -1.354
-0.398 -0.816 -1.363
-0.399 -0.816 -1.347
-0.392 -0.816 -1.401
-0.349 -0.813 -1.373
-0.379 -0.813 -1.368
-0.329 -0.818 -1.364
-0.423 -0.818 -1.414
-0.376 -0.812 -1.386
-0.406 -0.813 -1.401
-0.356 -0.817 -1.354
-0.390 -0.815 -1.420
-0.347 -0.813 -1.391
-0.374 -0.813 -1.405
-0.366 -0.815 -1.368
-0.363 -0.814 -1.387
-0.339 -0.816 -1.374
-0.435 -0.814 -1.416
-0.389 -0.811 -1.386
-0.402 -0.812 -1.421
-0.340 -0.815 -1.360
-0.322 -0.816 -1.397
-0.358 -0.814 -1.444
-0.317 -0.813 -1.415
-0.359 -0.814 -1.425
-0.323 -0.815 -1.380
-0.387 -0.813 -1.440
-0.296 -0.816 -1.384
-0.363 -0.815 -1.406
-0.349 -0.815 -1.409
-0.304 -0.821 -1.375
-0.372 -0.813 -1.442
-0.339 -0.819 -1.409
-0.372 -0.813 -1.423
-0.313 -0.819 -1.381
-0.344 -0.813 -1.429
-0.305 -0.814 -1.398
-0.336 -0.816 -1.393
-0.291 -0.813 -1.399
-0.329 -0.817 -1.466
-0.288 -0.813 -1.420
-0.332 -0.816 -1.429
-0.268 -0.819 -1.405
-0.279 -0.819 -1.419
-0.328 -0.814 -1.448
-0.244 -0.820 -1.399
-0.343 -0.814 -1.446
-0.269 -0.817 -1.392
-0.283 -0.819 -1.400
-0.313 -0.814 -1.451
-0.282 -0.816 -1.386
-0.305 -0.818 -1.431
-0.286 -0.815 -1.438
-0.306 -0.816 -1.413
-0.316 -0.815 -1.432
-0.235 -0.817 -1.426
-0.268 -0.816 -1.473
-0.215 -0.821 -1.420
-0.270 -0.815 -1.456
-0.300 -0.815 -1.452
-0.298 -0.816 -1.470
-0.263 -0.816 -1.424
-0.258 -0.814 -1.442
-0.240 -0.818 -1.409
-0.277 -0.810 -1.475
-0.277 -0.819 -1.437
-0.223 -0.818 -1.428
-0.250 -0.818 -1.423
-0.247 -0.818 -1.440
-0.255 -0.815 -1.459
-0.309 -0.813 -1.471
-0.284 -0.815 -1.455
-0.251 -0.816 -1.409
-0.226 -0.818 -1.416
-0.202 -0.815 -1.448
-0.238 -0.816 -1.477
-0.187 -0.821 -1.425
-0.236 -0.816 -1.497
-0.246 -0.811 -1.498
-0.181 -0.818 -1.436
-0.229 -0.814 -1.446
-0.196 -0.820 -1.431
-0.265 -0.816 -1.492
-0.214 -0.816 -1.462
-0.206 -0.816 -1.432
-0.242 -0.815 -1.460
-0.225 -0.814 -1.462
-0.200 -0.820 -1.423
-0.190 -0.817 -1.449
-0.222 -0.813 -1.482
-0.252 -0.815 -1.477
-0.218 -0.817 -1.445
-0.184 -0.819 -1.485
-0.212 -0.818 -1.481
-0.127 -0.819 -1.449
-0.208 -0.817 -1.501
-0.200 -0.813 -1.522
-0.171 -0.815 -1.470
-0.147 -0.816 -1.456
-0.143 -0.822 -1.446
-0.155 -0.820 -1.444
-0.175 -0.817 -1.453
-0.157 -0.816 -1.470
-0.165 -0.813 -1.490
-0.191 -0.814 -1.505
-0.194 -0.814 -1.487
-0.186 -0.817 -1.468
-0.164 -0.819 -1.453
-0.198 -0.815 -1.467
-0.220 -0.815 -1.501
-0.169 -0.820 -1.438
-0.148 -0.815 -1.504
-0.127 -0.820 -1.490
-0.172 -0.814 -1.525
-0.116 -0.817 -1.476
-0.153 -0.816 -1.487
-0.119 -0.815 -1.461
-0.181 -0.820 -1.503
-0.156 -0.811 -1.524
-0.108 -0.818 -1.461
-0.138 -0.807 -1.526
-0.186 -0.814 -1.523
-0.129 -0.815 -1.474
-0.141 -0.815 -1.472
-0.094 -0.816 -1.468
-0.135 -0.819 -1.455
-0.160 -0.812 -1.508
-0.136 -0.812 -1.492
-0.130 -0.811 -1.509
-0.089 -0.818 -1.481
-0.109 -0.812 -1.553
-0.120 -0.816 -1.509
-0.082 -0.813 -1.500
-0.114 -0.814 -1.530
-0.129 -0.816 -1.525
-0.093 -0.816 -1.513
-0.150 -0.810 -1.544
-0.085 -0.822 -1.472
-0.065 -0.820 -1.489
-0.108 -0.812 -1.497
-0.126 -0.817 -1.546
-0.136 -0.811 -1.545
-0.098 -0.817 -1.495
-0.106 -0.815 -1.512
-0.077 -0.819 -1.484
-0.100 -0.815 -1.532
-0.102 -0.817 -1.478
-0.078 -0.817 -1.571
-0.057 -0.817 -1.503
-0.067 -0.820 -1.518
-0.087 -0.815 -1.536
-0.061 -0.818 -1.538
-0.037 -0.819 -1.492
-0.040 -0.821 -1.521
-0.029 -0.815 -1.507
-0.098 -0.818 -1.552
-0.051 -0.815 -1.522
-0.082 -0.813 -1.556
-0.079 -0.816 -1.517
-0.051 -0.820 -1.490
-0.072 -0.820 -1.499
-0.074 -0.817 -1.537
-0.069 -0.817 -1.555
-0.025 -0.821 -1.497
-0.044 -0.819 -1.502
-0.024 -0.815 -1.526
-0.026 -0.815 -1.561
-0.034 -0.820 -1.541
-0.054 -0.813 -1.559
-0.005 -0.818 -1.542
0.019 -0.821 -1.521
0.003 -0.815 -1.528
-0.003 -0.815 -1.512
-0.050 -0.817 -1.576
0.007 -0.821 -1.515
-0.062 -0.813 -1.575
-0.018 -0.821 -1.507
-0.035 -0.814 -1.580
-0.042 -0.818 -1.559
-0.047 -0.817 -1.541
-0.012 -0.815 -1.561
-0.018 -0.815 -1.544
-0.012 -0.820 -1.524
0.037 -0.816 -1.545
0.048 -0.816 -1.521
-0.021 -0.817 -1.579
0.005 -0.819 -1.585
0.019 -0.821 -1.586
0.002 -0.814 -1.562
0.057 -0.813 -1.533
0.030 -0.814 -1.531
-0.015 -0.815 -1.601
0.015 -0.815 -1.565
0.029 -0.815 -1.567
0.015 -0.820 -1.528
-0.003 -0.817 -1.606
-0.006 -0.813 -1.582
0.032 -0.825 -1.520
0.010 -0.814 -1.545
0.044 -0.816 -1.529
0.023 -0.816 -1.545
0.040 -0.818 -1.609
0.061 -0.818 -1.590
0.078 -0.821 -1.544
0.056 -0.814 -1.569
0.047 -0.813 -1.629
0.087 -0.818 -1.558
0.010 -0.822 -1.607
0.082 -0.816 -1.574
0.051 -0.813 -1.547
0.025 -0.822 -1.606
0.068 -0.820 -1.571
0.048 -0.818 -1.589
0.075 -0.817 -1.555
0.034 -0.818 -1.586
0.067 -0.820 -1.539
0.053 -0.819 -1.608
0.063 -0.816 -1.550
0.043 -0.813 -1.567
0.075 -0.813 -1.632
0.097 -0.812 -1.612
0.088 -0.820 -1.591
0.108 -0.815 -1.578
0.112 -0.820 -1.564
0.068 -0.814 -1.610
0.060 -0.819 -1.628
0.089 -0.818 -1.630
0.123 -0.825 -1.568
0.116 -0.821 -1.593
0.121 -0.820 -1.578
0.082 -0.817 -1.610
0.100 -0.818 -1.561
0.095 -0.820 -1.574
0.075 -0.816 -1.592
0.102 -0.815 -1.593
0.123 -0.814 -1.615
0.172 -0.820 -1.587
0.141 -0.824 -1.599
0.103 -0.811 -1.634
0.130 -0.816 -1.634
0.137 -0.820 -1.571
0.123 -0.816 -1.655
0.096 -0.815 -1.653
0.150 -0.809 -1.617
0.134 -0.818 -1.581
0.116 -0.818 -1.634
0.145 -0.812 -1.633
0.146 -0.821 -1.582
0.109 -0.822 -1.653
0.136 -0.818 -1.616
0.159 -0.808 -1.588
0.128 -0.816 -1.598
0.110 -0.817 -1.611
0.149 -0.823 -1.572
0.152 -0.813 -1.655
0.158 -0.815 -1.635
0.165 -0.820 -1.658
0.139 -0.812 -1.653
0.158 -0.817 -1.679
0.175 -0.818 -1.622
0.182 -0.824 -1.593
0.204 -0.822 -1.612
0.182 -0.816 -1.644
0.169 -0.819 -1.598
0.170 -0.817 -1.640
0.191 -0.823 -1.611
0.163 -0.814 -1.617
0.177 -0.814 -1.661
0.179 -0.818 -1.606
0.187 -0.822 -1.626
0.227 -0.819 -1.627
0.201 -0.826 -1.627
0.212 -0.818 -1.685
0.186 -0.816 -1.681
0.235 -0.816 -1.647
0.208 -0.819 -1.647
0.214 -0.823 -1.626
0.191 -0.820 -1.662
0.218 -0.820 -1.665
0.172 -0.817 -1.680
0.219 -0.820 -1.608
0.199 -0.817 -1.682
0.223 -0.821 -1.646
0.244 -0.824 -1.613
0.241 -0.820 -1.628
0.204 -0.817 -1.664
0.231 -0.814 -1.610
0.196 -0.824 -1.645
0.239 -0.818 -1.688
0.221 -0.821 -1.707
0.248 -0.821 -1.709
0.246 -0.820 -1.665
0.253 -0.817 -1.631
0.261 -0.815 -1.649
0.277 -0.819 -1.636
0.272 -0.823 -1.669
0.231 -0.816 -1.666
0.275 -0.822 -1.651
0.254 -0.823 -1.620
0.233 -0.818 -1.710
0.257 -0.814 -1.668
0.253 -0.817 -1.688
0.266 -0.820 -1.633
0.250 -0.819 -1.646
0.226 -0.819 -1.687
0.275 -0.821 -1.712
0.265 -0.817 -1.690
0.286 -0.818 -1.654
0.283 -0.820 -1.736
0.301 -0.824 -1.654
0.301 -0.821 -1.716
0.301 -0.819 -1.641
0.311 -0.816 -1.657
0.282 -0.817 -1.674
0.297 -0.823 -1.674
0.291 -0.819 -1.694
0.308 -0.819 -1.676
0.304 -0.819 -1.696
0.279 -0.819 -1.692
0.287 -0.818 -1.715
0.261 -0.817 -1.711
0.290 -0.821 -1.637
0.313 -0.822 -1.645
0.324 -0.819 -1.658
0.318 -0.820 -1.697
0.309 -0.819 -1.738
0.336 -0.821 -1.662
0.336 -0.819 -1.740
0.332 -0.818 -1.761
0.343 -0.819 -1.699
0.328 -0.823 -1.719
0.359 -0.822 -1.668
0.348 -0.822 -1.679
0.323 -0.822 -1.676
0.313 -0.818 -1.718
0.339 -0.818 -1.720
0.331 -0.822 -1.698
0.358 -0.819 -1.681
0.351 -0.828 -1.664
0.297 -0.823 -1.737
0.333 -0.817 -1.678
0.324 -0.822 -1.738
0.394 -0.822 -1.706
0.369 -0.821 -1.702
0.380 -0.824 -1.724
0.359 -0.820 -1.765
0.382 -0.822 -1.689
0.333 -0.819 -1.761
0.354 -0.822 -1.720
0.356 -0.819 -1.700
0.430 -0.822 -1.729
0.427 -0.821 -1.749
0.388 -0.821 -1.747
0.406 -0.824 -1.694
0.418 -0.822 -1.710
0.411 -0.822 -1.772
0.406 -0.825 -1.727
0.413 -0.821 -1.749
0.384 -0.820 -1.768
0.396 -0.823 -1.791
0.408 -0.822 -1.793
0.406 -0.822 -1.708
0.400 -0.825 -1.770
0.416 -0.821 -1.728
0.419 -0.829 -1.698
0.402 -0.823 -1.748
0.431 -0.825 -1.712
0.422 -0.823 -1.795
0.462 -0.822 -1.774
0.442 -0.823 -1.713
0.452 -0.822 -1.751
0.478 -0.823 -1.735
0.456 -0.823 -1.731
0.438 -0.819 -1.750
0.450 -0.826 -1.797
0.438 -0.824 -1.773
0.466 -0.824 -1.717
0.464 -0.820 -1.752
0.460 -0.822 -1.797
0.466 -0.821 -1.732
0.424 -0.823 -1.772
0.433 -0.823 -1.796
0.455 -0.823 -1.714
0.441 -0.821 -1.730
0.449 -0.821 -1.774
0.488 -0.823 -1.777
0.502 -0.828 -1.743
0.476 -0.825 -1.798
0.500 -0.824 -1.800
0.470 -0.821 -1.820
0.460 -0.824 -1.820
0.496 -0.821 -1.821
0.510 -0.824 -1.745
0.513 -0.822 -1.759
0.478 -0.823 -1.754
0.502 -0.824 -1.758
0.485 -0.821 -1.798
0.490 -0.824 -1.739
0.488 -0.822 -1.756
0.475 -0.822 -1.776
0.502 -0.825 -1.779
0.486 -0.824 -1.820
0.524 -0.824 -1.803
0.536 -0.824 -1.848
0.509 -0.823 -1.845
0.524 -0.824 -1.825
0.527 -0.825 -1.761
0.512 -0.822 -1.780
0.538 -0.824 -1.782
0.550 -0.825 -1.765
0.521 -0.823 -1.846
0.537 -0.824 -1.763
0.511 -0.824 -1.823
0.511 -0.823 -1.802
0.526 -0.829 -1.749
0.550 -0.823 -1.783
0.525 -0.823 -1.781
0.537 -0.825 -1.826
0.537 -0.824 -1.804
0.561 -0.825 -1.852
0.550 -0.824 -1.804
0.548 -0.823 -1.827
0.563 -0.825 -1.785
0.574 -0.825 -1.830
0.587 -0.826 -1.811
0.570 -0.830 -1.776
0.577 -0.828 -1.809
0.561 -0.823 -1.805
0.570 -0.821 -1.874
0.587 -0.830 -1.793
0.577 -0.830 -1.790
0.549 -0.826 -1.851
0.586 -0.825 -1.830
0.561 -0.827 -1.770
0.562 -0.825 -1.828
0.573 -0.824 -1.851
0.588 -0.826 -1.852
0.598 -0.829 -1.794
0.596 -0.822 -1.830
0.612 -0.826 -1.877
0.622 -0.824 -1.833
0.612 -0.825 -1.854
0.622 -0.832 -1.800
0.598 -0.824 -1.877
0.625 -0.826 -1.855
0.629 -0.829 -1.802
0.610 -0.825 -1.811
0.614 -0.827 -1.832
0.587 -0.825 -1.875
0.601 -0.828 -1.811
0.624 -0.827 -1.813
0.598 -0.824 -1.852
0.608 -0.828 -1.795
0.647 -0.825 -1.857
0.650 -0.827 -1.905
0.628 -0.829 -1.904
0.648 -0.825 -1.836
0.663 -0.827 -1.859
0.661 -0.827 -1.836
0.636 -0.828 -1.815
0.637 -0.825 -1.878
0.635 -0.824 -1.903
0.649 -0.829 -1.816
0.637 -0.827 -1.835
0.656 -0.824 -1.816
0.639 -0.826 -1.856
0.665 -0.829 -1.883
0.622 -0.823 -1.877
0.648 -0.824 -1.879
0.671 -0.830 -1.821
0.688 -0.828 -1.884
0.672 -0.826 -1.838
0.695 -0.825 -1.884
0.695 -0.828 -1.843
0.698 -0.827 -1.862
0.679 -0.831 -1.909
0.672 -0.825 -1.859
0.686 -0.830 -1.841
0.662 -0.827 -1.907
0.680 -0.832 -1.828
0.711 -0.835 -1.911
0.681 -0.823 -1.929
0.690 -0.829 -1.909
0.709 -0.832 -1.846
0.672 -0.825 -1.883
0.688 -0.828 -1.861
0.728 -0.829 -1.935
0.729 -0.830 -1.911
0.742 -0.828 -1.960
0.731 -0.830 -1.848
0.746 -0.829 -1.867
0.737 -0.827 -1.885
0.723 -0.827 -1.863
0.738 -0.828 -1.910
0.718 -0.831 -1.886
0.701 -0.826 -1.931
0.708 -0.826 -1.863
0.735 -0.827 -1.864
0.738 -0.828 -1.935
0.710 -0.825 -1.909
0.721 -0.825 -1.885
0.713 -0.827 -1.933
0.723 -0.832 -1.847
0.770 -0.831 -1.963
0.769 -0.831 -1.873
0.776 -0.828 -1.937
0.753 -0.829 -1.936
0.766 -0.833 -1.891
0.747 -0.826 -1.887
0.750 -0.827 -1.910
0.781 -0.830 -1.962
0.785 -0.830 -1.892
0.762 -0.827 -1.935
0.779 -0.832 -1.915
0.774 -0.831 -1.892
0.755 -0.829 -1.962
0.758 -0.831 -1.871
0.784 -0.834 -1.876
0.759 -0.826 -1.911
0.822 -0.831 -1.989
0.810 -0.828 -1.915
0.795 -0.831 -1.964
0.819 -0.831 -1.965
0.793 -0.827 -1.891
0.819 -0.832 -1.899
0.794 -0.834 -1.878
0.802 -0.830 -1.940
0.787 -0.829 -1.915
0.803 -0.832 -1.916
0.815 -0.831 -1.941
0.823 -0.830 -1.917
0.806 -0.830 -1.964
0.806 -0.829 -1.988
0.809 -0.831 -1.894
0.789 -0.829 -1.938
0.847 -0.832 -1.966
0.860 -0.829 -1.941
0.845 -0.829 -1.988
0.829 -0.831 -1.941
0.838 -0.832 -1.920
0.836 -0.829 -1.940
0.852 -0.824 -2.010
0.859 -0.833 -1.924
0.854 -0.829 -1.964
0.830 -0.830 -1.965
0.846 -0.831 -1.920
0.831 -0.829 -1.988
0.830 -0.836 -1.905
0.854 -0.831 -1.941
0.855 -0.827 -1.987
0.890 -0.832 -1.945
0.879 -0.826 -2.014
0.901 -0.834 -1.993
0.878 -0.830 -1.966
0.900 -0.841 -1.934
0.882 -0.830 -1.990
0.880 -0.834 -1.927
0.871 -0.830 -1.989
0.895 -0.833 -1.968
0.901 -0.833 -2.018
0.902 -0.833 -1.946
0.901 -0.829 -1.967
0.877 -0.838 -1.927
0.870 -0.832 -1.965
0.874 -0.829 -2.014
0.878 -0.832 -1.944
0.931 -0.834 -1.972
0.926 -0.835 -1.996
0.942 -0.835 -2.049
0.931 -0.833 -1.996
0.916 -0.833 -2.047
0.912 -0.833 -1.946
0.927 -0.835 -2.023
0.951 -0.837 -1.999
0.948 -0.837 -1.974
0.920 -0.834 -1.969
0.933 -0.836 -2.049
0.902 -0.828 -1.991
0.906 -0.838 -1.933
0.944 -0.838 -2.025
0.924 -0.833 -1.948
0.933 -0.833 -1.948
0.919 -0.836 -2.022
0.956 -0.834 -1.998
0.955 -0.837 -2.025
0.971 -0.834 -2.073
0.956 -0.836 -2.050
0.968 -0.837 -1.977
0.956 -0.836 -1.974
0.944 -0.835 -1.952
0.981 -0.836 -2.000
0.972 -0.836 -2.050
0.981 -0.838 -2.026
0.958 -0.833 -2.022
0.978 -0.840 -2.002
0.976 -0.834 -2.048
0.985 -0.835 -2.025
0.981 -0.833 -2.074
0.980 -0.838 -1.979
0.993 -0.840 -1.983
1.028 -0.837 -2.077
1.003 -0.837 -2.026
1.015 -0.838 -2.027
1.012 -0.840 -2.054
1.004 -0.834 -2.000
1.025 -0.840 -2.003
0.994 -0.837 -2.052
1.006 -0.838 -2.079
1.000 -0.839 -2.002
1.019 -0.838 -2.054
1.009 -0.840 -1.984
1.007 -0.835 -2.077
1.003 -0.842 -1.986
-1.594 -0.208 -3.210
-1.618 -0.168 -3.227
-1.147 -0.186 -2.839
-1.171 -0.194 -2.839
-1.160 -0.145 -2.869
-1.152 -0.156 -2.845
-1.174 -0.157 -2.860
-1.164 -0.189 -2.850
-1.123 -0.137 -2.883
-1.038 -0.189 -2.828
-1.053 -0.127 -2.847
-1.158 -0.161 -2.876
-1.139 -0.193 -2.853
-1.148 -0.146 -2.885
-1.097 -0.195 -2.840
-1.103 -0.179 -2.862
-1.006 -0.156 -2.878
-1.042 -0.131 -2.868
-1.016 -0.187 -2.858
-1.041 -0.151 -2.855
-0.991 -0.145 -2.882
-0.999 -0.186 -2.865
-1.016 -0.139 -2.877
-1.040 -0.173 -2.840
-0.985 -0.124 -2.886
-0.976 -0.172 -2.888
-1.023 -0.159 -2.871
-0.919 -0.138 -2.912
-0.939 -0.157 -2.925
-0.979 -0.143 -2.898
-0.964 -0.176 -2.911
-0.923 -0.194 -2.940
-0.966 -0.143 -2.912
-0.969 -0.127 -2.901
-0.952 -0.181 -2.932
-0.950 -0.124 -2.904
-0.914 -0.136 -2.937
-0.922 -0.158 -2.937
-0.810 -0.177 -2.903
-0.865 -0.129 -2.934
-0.855 -0.157 -2.913
-0.866 -0.111 -2.952
-0.885 -0.170 -2.933
-0.890 -0.140 -2.945
-0.878 -0.135 -2.952
-0.794 -0.171 -2.905
-0.898 -0.179 -2.924
-0.822 -0.124 -2.933
-0.813 -0.166 -2.934
-0.792 -0.132 -2.932
-0.798 -0.181 -2.962
-0.787 -0.160 -2.918
-0.557 -0.266 -4.213
-0.515 -0.250 -4.191
-0.492 -0.279 -4.225
-0.585 -0.204 -4.248
-0.551 -0.211 -4.239
-0.515 -0.246 -4.217
-0.504 -0.177 -4.221
-0.553 -0.282 -4.194
-0.416 -0.229 -4.226
-0.433 -0.290 -4.251
-0.387 -0.252 -4.244
-0.445 -0.232 -4.225
-0.466 -0.209 -4.201
-0.417 -0.238 -4.246
-0.382 -0.231 -4.226
-0.467 -0.207 -4.184
-0.383 -0.246 -4.280
-0.462 -0.266 -4.260
-0.434 -0.184 -4.224
-0.345 -0.235 -4.254
-0.323 -0.224 -4.250
-0.321 -0.270 -4.237
-0.286 -0.251 -4.228
-0.305 -0.201 -4.270
-0.343 -0.215 -4.250
-0.265 -0.174 -4.269
-0.278 -0.249 -4.253
-0.251 -0.230 -4.221
-0.239 -0.223 -4.247
-0.095 -0.226 -4.256
-0.103 -0.271 -4.347
-0.063 -0.264 -4.358
-0.091 -0.238 -4.309
-0.104 -0.192 -4.239
-0.091 -0.180 -4.446
-0.032 -0.206 -4.423
-0.024 -0.172 -4.430
-0.043 -0.249 -4.388
-0.024 -0.227 -4.421
-0.061 -0.210 -4.356
-0.068 -0.243 -4.363
0.407 -0.203 -4.316
0.425 -0.243 -4.246
0.421 -0.245 -4.294
0.418 -0.191 -4.396
0.441 -0.202 -4.247
0.454 -0.246 -4.262
0.434 -0.203 -4.361
0.417 -0.223 -4.316
0.469 -0.208 -4.264
0.549 -0.225 -4.219
0.536 -0.208 -4.227
0.482 -0.168 -4.226
0.508 -0.204 -4.296
0.497 -0.212 -4.234
0.480 -0.252 -4.250
0.528 -0.187 -4.219
0.488 -0.247 -4.218
0.631 -0.212 -4.220
